# .PCD v0.7 - Point Cloud Data file format
VERSION 0.7
FIELDS x y z
SIZE 4 4 4
TYPE F F F
COUNT 1 1 1
WIDTH 1359
HEIGHT 1
VIEWPOINT 0 0 0 1 0 0 0
POINTS 1359
DATA ascii
-0.17591844 -0.025179043 -0.024948714
-0.12571728 -0.025876909 -0.022132955
-0.075696342 -0.023573693 -0.025340306
-0.039195545 -0.017589999 -0.020793311
-0.80840713 0.043483436 -0.021589197
-0.77331173 0.037615493 -0.028245628
-0.72826046 0.028266458 -0.02637291
-0.67747313 0.024147375 -0.028727014
-0.62577689 0.025444377 -0.032205544
-0.57615066 0.029808778 -0.028005574
-0.52753007 0.02764819 -0.026594536
-0.47547752 0.024723295 -0.029404363
-0.42914566 0.025206488 -0.02747418
-0.3761622 0.024881743 -0.027025865
-0.32590145 0.022461379 -0.028130362
-0.27465394 0.027631205 -0.026476216
-0.22476685 0.029941967 -0.028623834
-0.17194496 0.023995955 -0.028230438
-0.12378652 0.024092788 -0.026368974
-0.073242433 0.025922865 -0.024927426
-0.033415448 0.028231945 -0.021539917
0.0021824439 0.031785112 -0.027686285
-0.80873334 0.075985007 -0.022923322
-0.775226 0.075551286 -0.030000957
-0.72381252 0.073286243 -0.032930382
-0.67221826 0.069202103 -0.031636912
-0.62911671 0.070933715 -0.028159751
-0.57102919 0.067113511 -0.022841025
-0.52168053 0.066774271 -0.028781993
-0.47577569 0.075638652 -0.037857682
-0.43664446 0.075236894 -0.038098678
-0.3864291 0.07490699 -0.03556193
-0.34059021 0.073432595 -0.038304977
-0.26930016 0.065090589 -0.024721615
-0.22652911 0.058455132 -0.024800844
-0.1725153 0.067992948 -0.025334815
-0.11453661 0.073517509 -0.035523809
-0.077180505 0.072626352 -0.035266254
-0.029496185 0.073135994 -0.031005884
0.0098522892 0.077092171 -0.025624102
-0.8088184 0.12568738 -0.026541848
-0.76706547 0.12272137 -0.028563257
-0.71686733 0.12030036 -0.034371067
-0.66503555 0.12399344 -0.035703093
-0.62317467 0.11612797 -0.029236658
-0.57941252 0.12208977 -0.031770151
-0.52724898 0.12613101 -0.02926736
-0.4834598 0.12397603 -0.030708162
-0.43922776 0.12444481 -0.031873196
-0.36467227 0.12471534 -0.026664902
-0.31844151 0.12276589 -0.030180201
-0.26880077 0.12225581 -0.028990565
-0.22381122 0.11676751 -0.026889514
-0.17922932 0.12221211 -0.030706327
-0.12787899 0.12582973 -0.034455426
-0.087739915 0.11872013 -0.035021689
-0.023914035 0.1220523 -0.02888429
0.0087125544 0.1305414 -0.023901062
-0.80595797 0.18027869 -0.024595972
-0.77510887 0.17092739 -0.027714904
-0.71911454 0.17149492 -0.031529382
-0.67320246 0.17081033 -0.035358582
-0.63190347 0.164536 -0.029137757
-0.55835497 0.19190682 -0.030875651
-0.51560855 0.18585868 -0.029835286
-0.47013694 0.18326826 -0.02900598
-0.41794026 0.18909389 -0.030439258
-0.37157527 0.18375787 -0.02941047
-0.32572144 0.18172367 -0.029966228
-0.27561429 0.18408033 -0.028923305
-0.23999825 0.19264013 -0.029237794
-0.18226898 0.18399414 -0.032215316
-0.14032227 0.18688567 -0.036341205
-0.10292405 0.19403118 -0.035509326
-0.027179228 0.18049495 -0.027393609
0.0077022519 0.18010426 -0.023799729
-0.80947387 0.2270422 -0.021965122
-0.76241392 0.23373508 -0.028081967
-0.71117091 0.23408073 -0.033555921
-0.65447235 0.23906678 -0.036386613
-0.60908836 0.24382384 -0.035793573
-0.5688262 0.23636757 -0.034630995
-0.52225405 0.23617113 -0.033402778
-0.47477612 0.23435187 -0.03367424
-0.43051085 0.23598544 -0.035714786
-0.38098875 0.23132494 -0.033278376
-0.3326503 0.23222384 -0.034009513
-0.28053302 0.23362024 -0.032540008
-0.21857566 0.23732035 -0.030563958
-0.17637688 0.23011959 -0.032552671
-0.12698857 0.22987738 -0.036301732
-0.086444058 0.23799843 -0.036650348
-0.027340449 0.23089527 -0.030012297
0.0072354986 0.22535133 -0.02760483
-0.80790865 0.27597496 -0.025038278
-0.77266717 0.28072491 -0.025738085
-0.71813363 0.28010076 -0.030975629
-0.66650057 0.28136018 -0.03532365
-0.62579578 0.28506419 -0.034261599
-0.57735646 0.28327179 -0.036016628
-0.52792525 0.28135201 -0.035246965
-0.46339148 0.28228477 -0.031650383
-0.41371676 0.28032324 -0.033097442
-0.37464824 0.27950785 -0.031270899
-0.32532504 0.28393471 -0.030186052
-0.2755931 0.2849333 -0.03211486
-0.22911218 0.28131622 -0.028755754
-0.18179424 0.27683249 -0.033397567
-0.13537239 0.27743483 -0.035222746
-0.099973299 0.28042102 -0.036335811
-0.031240739 0.27951497 -0.031063225
0.0079544894 0.27384689 -0.02605968
-0.80850595 0.31441879 -0.026274683
-0.77820706 0.32972613 -0.027764834
-0.71222103 0.32636017 -0.031325132
-0.65751785 0.32463947 -0.036763731
-0.61575705 0.32560074 -0.034729645
-0.55383497 0.32795671 -0.037403125
-0.51996076 0.32389316 -0.033953629
-0.47159442 0.32782468 -0.031541195
-0.4246704 0.32270157 -0.034053776
-0.37929562 0.32582363 -0.034347247
-0.33084217 0.327748 -0.031839076
-0.28406253 0.32509845 -0.033874858
-0.23208655 0.32624176 -0.030089559
-0.18358806 0.32492492 -0.033196248
-0.14055754 0.32402837 -0.036911581
-0.07423754 0.32711771 -0.035408281
-0.026057543 0.32742026 -0.028126145
0.0054294658 0.31239921 -0.022127638
-0.80493337 0.35878983 -0.00017049909
-0.76887721 0.36869094 -0.01889565
-0.71181339 0.37079874 -0.02075349
-0.66273904 0.37244064 -0.033277575
-0.62146795 0.37560621 -0.03453555
-0.56329727 0.37328076 -0.036299378
-0.51954699 0.36887521 -0.033220578
-0.47355583 0.37358817 -0.031074395
-0.42864957 0.37449917 -0.032718305
-0.38094068 0.37501216 -0.032903809
-0.33449557 0.37416595 -0.031028939
-0.2889038 0.3726894 -0.033485319
-0.22081782 0.37303346 -0.032752246
-0.17358327 0.37418371 -0.033628911
-0.12349262 0.37486371 -0.030934578
-0.075896457 0.37175998 -0.025028262
-0.040774964 0.35669732 -0.019071763
-0.77162659 0.42914709 -0.0045212889
-0.7188738 0.42479658 -0.015019357
-0.66888648 0.42338863 -0.031388432
-0.62111229 0.42195609 -0.034823589
-0.57074332 0.41903073 -0.037119962
-0.52468055 0.42109379 -0.031934422
-0.47629869 0.42279044 -0.03176412
-0.43694484 0.41157755 -0.034377761
-0.37212098 0.41552734 -0.029241743
-0.33386573 0.42214081 -0.03171239
-0.26740316 0.42048109 -0.031673197
-0.22413246 0.42118052 -0.033785854
-0.17872953 0.42131266 -0.030794416
-0.1296819 0.41813818 -0.032842226
-0.074799284 0.42438337 -0.026148256
-0.024490416 0.42222548 -0.0031702518
0.015559733 0.40421882 -0.00025823712
-0.77131456 0.47374153 -0.0027054115
-0.71893293 0.47417989 -0.015247761
-0.67168039 0.47282943 -0.031232791
-0.6252684 0.47122219 -0.031925306
-0.5786258 0.46569139 -0.033399668
-0.52953255 0.4679108 -0.032710023
-0.48274291 0.46867442 -0.030492205
-0.40825647 0.45376608 -0.039172549
-0.3649666 0.47508606 -0.030678511
-0.32085156 0.46912503 -0.027892916
-0.2735911 0.4636606 -0.032912932
-0.22811268 0.46800199 -0.033577483
-0.1809417 0.46945187 -0.032625105
-0.14047313 0.46315724 -0.032477751
-0.075509064 0.47378609 -0.024850886
-0.024579262 0.47236866 -0.003864812
-0.77172202 0.52289742 -0.0037917197
-0.71979445 0.52637452 -0.014622029
-0.67821342 0.5197528 -0.029867548
-0.61133558 0.5192762 -0.029367268
-0.55689561 0.50863093 -0.032227531
-0.51778686 0.51488495 -0.031735562
-0.47143352 0.5197255 -0.026431087
-0.42031154 0.51532453 -0.026491025
-0.37300828 0.5211972 -0.025887199
-0.32748279 0.51850373 -0.028325314
-0.28270623 0.51117903 -0.031077579
-0.2289491 0.52007484 -0.026116267
-0.18507163 0.51800042 -0.028510189
-0.14583834 0.51205766 -0.026981235
-0.077249207 0.52551919 -0.025765499
-0.028934445 0.52533412 -0.0037113179
-0.76653945 0.57377189 -0.0031267758
-0.71960175 0.57099694 -0.013396188
-0.66776699 0.56466198 -0.017061342
-0.60945648 0.53625512 -0.027834279
-0.55987686 0.52394015 -0.029048495
-0.51504868 0.54858017 -0.021543842
-0.47239995 0.56302118 -0.017073188
-0.42838964 0.55037063 -0.020300178
-0.37867308 0.56075019 -0.016417153
-0.33157462 0.56078237 -0.014621564
-0.29901895 0.53921169 -0.022218607
-0.25004292 0.53482735 -0.023947347
-0.20502934 0.53531682 -0.018885152
-0.12032628 0.53549266 -0.020884434
-0.082999766 0.57202959 -0.014621255
-0.031040136 0.57890087 -0.0042357924
-0.768408 0.62324387 -0.0034017402
-0.72043723 0.62245888 -0.010643085
-0.67694396 0.62835151 -0.013570922
-0.64731109 0.62278813 -0.011381149
-0.50725234 0.62798482 -0.016476372
-0.47291601 0.62687188 -0.011133726
-0.4235068 0.62519503 -0.010407793
-0.37619057 0.62626374 -0.010543092
-0.32500923 0.62371856 -0.010402397
-0.28336903 0.62538451 -0.0099992547
-0.11908316 0.62433481 -0.012897309
-0.080114558 0.62532717 -0.011869094
-0.027470089 0.63078868 -0.0044975001
0.00351879 0.64420938 -0.001006335
-0.76608139 0.67354774 -0.0037899092
-0.71983224 0.67360896 -0.012365535
-0.67722571 0.67648137 -0.012551932
-0.6469143 0.67255306 -0.010227461
-0.50798178 0.67596573 -0.013397017
-0.47174916 0.6746704 -0.010477507
-0.42436182 0.67656636 -0.008783686
-0.37615755 0.67634958 -0.0098652327
-0.32364866 0.67486465 -0.01007893
-0.28395525 0.67637599 -0.0093445824
-0.11807279 0.67369258 -0.016162803
-0.081424713 0.67540163 -0.011484934
-0.02933947 0.67635685 -0.0044501028
-0.76715654 0.72483355 -0.0028851766
-0.71935129 0.72644186 -0.011493
-0.67587203 0.72411227 -0.013470781
-0.64773607 0.71914041 -0.0078357458
-0.50749576 0.72366345 -0.014511993
-0.47310713 0.72324198 -0.0096005769
-0.42478859 0.7240845 -0.0088969767
-0.37572351 0.72411013 -0.00884833
-0.32483044 0.72238237 -0.0093821567
-0.28301492 0.7283209 -0.0085549643
-0.12086648 0.72674978 -0.015199205
-0.081705414 0.72708619 -0.012839643
-0.028702687 0.72407925 -0.0034730844
0.0089544058 0.70818853 -0.0012057424
-0.76176447 0.78170973 -0.0015782416
-0.71673089 0.77170748 -0.014172118
-0.67411077 0.77655929 -0.011936861
-0.64762884 0.76641226 -0.0070996485
-0.50941187 0.77202088 -0.013991378
-0.49136195 0.77327079 -0.01058515
-0.42215204 0.75900394 -0.0060137063
-0.38541031 0.7560873 -0.0081236511
-0.31483653 0.77230775 -0.0069930325
-0.28221729 0.77359468 -0.011454467
-0.12340686 0.77829564 -0.014484098
-0.082109094 0.77771509 -0.01317767
-0.031701885 0.76876336 -0.0061571077
-0.76284146 0.81995022 -0.0016660243
-0.71874416 0.82134151 -0.012712847
-0.67295283 0.82526845 -0.012817522
-0.64803272 0.82314634 -0.012209077
-0.50809425 0.82171756 -0.013566148
-0.49107376 0.82737046 -0.011107708
-0.31028184 0.82112277 -0.0077126697
-0.28191951 0.82191038 -0.0094894944
-0.12248218 0.82373512 -0.014734179
-0.082198173 0.82546037 -0.012978747
-0.034692626 0.82792091 -0.0048313737
-0.76447684 0.87800896 -0.0018003061
-0.72006983 0.87355375 -0.012391864
-0.67522228 0.87414986 -0.012430159
-0.64920771 0.87756741 -0.01081799
-0.50832909 0.87155074 -0.013780762
-0.49021712 0.87739408 -0.010127053
-0.31272742 0.87398773 -0.009126721
-0.28252804 0.87496299 -0.01112208
-0.12164097 0.87618965 -0.014345909
-0.079535641 0.8720715 -0.012929974
-0.043410838 0.87914914 -0.0049952269
-0.75834519 0.92523873 -0.0052129328
-0.72055876 0.92745376 -0.013222042
-0.67514884 0.9251256 -0.01146289
-0.6443305 0.92953658 -0.010153219
-0.50905633 0.92503208 -0.012745908
-0.49158007 0.92721015 -0.0097361747
-0.31301236 0.92721522 -0.0084301112
-0.28086093 0.92897683 -0.0095372517
-0.12125137 0.92782092 -0.01398662
-0.079926781 0.92585778 -0.012698678
-0.046289384 0.91425443 -0.0038613379
-0.75720483 0.97277588 -0.0064022341
-0.72031099 0.97719347 -0.013838465
-0.67659593 0.97650522 -0.011660181
-0.64349055 0.98390698 -0.0076746121
-0.55239838 0.99971879 -0.00058965385
-0.50762075 0.97459126 -0.015490559
-0.49052134 0.97856283 -0.010189176
-0.31487253 0.97658443 -0.0079917675
-0.28053036 0.97960967 -0.0094896639
-0.23845322 0.99798983 -0.0015840828
-0.12155467 0.97704595 -0.013197615
-0.078598835 0.97881085 -0.010991056
-0.045093924 0.97190827 -0.0038964599
-0.76109362 1.0226269 -0.0054026321
-0.71995342 1.0273163 -0.013446566
-0.67422056 1.0236055 -0.012708264
-0.6399644 1.0370276 -0.00026480854
-0.52328902 1.0259149 -0.011123353
-0.49280441 1.0235704 -0.0086397231
-0.315074 1.025385 -0.0078308173
-0.27570271 1.0263551 -0.01000277
-0.24039097 1.0244652 -0.0018490255
-0.12148702 1.0259577 -0.013447192
-0.07779824 1.0264937 -0.010867536
-0.04582423 1.033738 -0.0066181519
-0.76197743 1.0784099 -0.0040205028
-0.72077382 1.0740627 -0.013565117
-0.6754204 1.0740814 -0.012346765
-0.64630914 1.0935721 -0.0049278587
-0.55237782 1.0510739 -0.00021161139
-0.52371663 1.0761251 -0.0099492762
-0.48994002 1.0756218 -0.0086006159
-0.43521419 1.090302 -0.0069885813
-0.36575717 1.0959808 -0.0058445372
-0.31450158 1.0816308 -0.0090751713
-0.2748774 1.075101 -0.0098507227
-0.23969889 1.070006 -0.0016103933
-0.11667475 1.0742198 -0.013972972
-0.077377833 1.0747368 -0.012033963
-0.044454336 1.075652 -0.0066798627
-0.76134259 1.1310302 -0.0065776757
-0.72090423 1.1226901 -0.013553757
-0.6766631 1.126573 -0.013335047
-0.64477813 1.1399763 -0.0030989125
-0.52266949 1.1240681 -0.0099564297
-0.47444233 1.1255027 -0.011105661
-0.4215236 1.1258945 -0.010848898
-0.37914819 1.1247387 -0.011756929
-0.32363066 1.1273175 -0.009903634
-0.27576628 1.1234016 -0.01036399
-0.23885119 1.1257423 -0.0014522502
-0.11717891 1.1254852 -0.013035668
-0.078627259 1.1245286 -0.012424245
-0.043263376 1.123606 -0.0073745996
-0.75818837 1.1772438 -0.0063926158
-0.71899587 1.1742073 -0.013676838
-0.67563534 1.1738442 -0.012181493
-0.64235342 1.1776145 -0.0063548237
-0.52397013 1.1718926 -0.011410376
-0.4749935 1.1745441 -0.011306146
-0.42260286 1.1726424 -0.011570325
-0.3761594 1.1732962 -0.011607742
-0.32465756 1.1736214 -0.012281215
-0.27806044 1.174029 -0.010355718
-0.2400099 1.1760132 -0.0013455987
-0.11672729 1.1740836 -0.01507838
-0.077808797 1.1723044 -0.010748117
-0.042902652 1.1777549 -0.0075966516
-0.7591542 1.2308885 -0.0067348671
-0.71735775 1.2257754 -0.013374146
-0.67489862 1.2258934 -0.012416893
-0.64354116 1.2250955 -0.0061320215
-0.52256024 1.2227805 -0.0099188425
-0.47440889 1.2261821 -0.0099989865
-0.42301896 1.2231227 -0.01064368
-0.37747931 1.2245367 -0.01172292
-0.32506359 1.225214 -0.01172072
-0.27787176 1.223554 -0.010333419
-0.23917495 1.2170413 -0.0017868677
-0.1183513 1.2258925 -0.014121955
-0.079611622 1.2236148 -0.01262299
-0.039745852 1.2312708 -0.0081599355
-0.76019299 1.2755525 -0.0075491397
-0.71866465 1.273301 -0.011989276
-0.67476672 1.2793803 -0.013917834
-0.64171201 1.2791535 -0.0089624822
-0.52097839 1.2758957 -0.010622909
-0.47416738 1.2755384 -0.012050468
-0.42289859 1.2723352 -0.011935809
-0.37829626 1.2745086 -0.013148821
-0.32474393 1.2739458 -0.011245588
-0.27515206 1.27277 -0.010666125
-0.23960558 1.2641242 -0.0017345101
-0.11803356 1.2751609 -0.012512423
-0.08082027 1.2764623 -0.012780238
-0.037744641 1.281271 -0.0076225372
-0.76335609 1.3232806 -0.007460136
-0.71810389 1.3218367 -0.013757989
-0.67703927 1.3273267 -0.012589797
-0.64347309 1.3307542 -0.010103841
-0.55000168 1.3321308 -0.0073727854
-0.52179259 1.3251736 -0.009991169
-0.47248971 1.3266639 -0.011676412
-0.4239313 1.3242174 -0.011153538
-0.37684864 1.3235524 -0.012943289
-0.3242861 1.3258916 -0.01139414
-0.27719986 1.3241349 -0.011096505
-0.24019577 1.3158498 -0.0013014004
-0.11894225 1.3206685 -0.013126442
-0.079394571 1.3250121 -0.012744498
-0.036848303 1.3247701 -0.0081479559
-0.76462609 1.3733687 -0.0062744264
-0.7174418 1.3722222 -0.011415594
-0.67568642 1.3761536 -0.014156279
-0.6411013 1.3764915 -0.01092567
-0.5500859 1.3917911 -0.0077517591
-0.5231021 1.3747494 -0.0098993331
-0.47422656 1.3786083 -0.010627826
-0.42270753 1.3743074 -0.011367281
-0.3773886 1.3742173 -0.010964289
-0.32309666 1.3775159 -0.011445802
-0.27738345 1.3744889 -0.010087497
-0.23963389 1.3682258 -0.0016479865
-0.11761014 1.374269 -0.012693451
-0.078953654 1.3750923 -0.011943757
-0.039119646 1.3754234 -0.0094384179
-0.76635885 1.4200777 -0.0077465205
-0.71958095 1.4217292 -0.010180877
-0.6757127 1.422658 -0.011617698
-0.64679414 1.4216498 -0.0097415447
-0.52132219 1.4255252 -0.010987875
-0.47156566 1.4233836 -0.013267135
-0.4242011 1.423125 -0.011330803
-0.37676859 1.4237697 -0.012124379
-0.32380897 1.4250406 -0.010974769
-0.27681005 1.4269131 -0.0098513318
-0.2417765 1.4237982 -0.0048859892
-0.11947969 1.4217175 -0.011583066
-0.080947332 1.4223475 -0.01223046
-0.037066109 1.4190722 -0.007778123
-0.55122483 1.4656944 -0.0079625938
-0.52644664 1.4730169 -0.0067716027
-0.4783439 1.4619263 -0.0074713458
-0.42151752 1.4572594 -0.0085736299
-0.3758252 1.4575218 -0.0093176691
-0.3267583 1.4571201 -0.0095045241
-0.27414241 1.4749703 -0.0096986778
-0.24459496 1.4828498 -0.0029818558
-0.086578369 1.4530549 -0.00063890219
-0.55162483 1.5210588 -0.0075378651
-0.52729321 1.5239459 -0.0063867066
-0.49701208 1.5307997 -0.0015006959
-0.27270824 1.5307871 -0.01045942
-0.24524271 1.525558 -0.0062500387
-0.55131304 1.5812567 -0.0083597992
-0.52463996 1.5751177 -0.0078104883
-0.47404805 1.5876349 -0.0098306369
-0.42467928 1.59229 -0.0074536637
-0.37400916 1.5897918 -0.0099017061
-0.32115561 1.5898238 -0.0075805895
-0.27255413 1.5838925 -0.0086154267
-0.24306378 1.575405 -0.0018333942
-0.52474731 1.6051109 -0.0066028154
-0.47523889 1.6041036 -0.0043670773
-0.42930642 1.6090122 -0.0061885011
-0.38365242 1.6063759 -0.0059049344
-0.32696351 1.6082683 -0.0070502236
-0.28122756 1.609098 -0.0078371428
-0.72404069 -0.01993911 0.023498146
-0.67531699 -0.027924748 0.024492556
-0.62554085 -0.028470296 0.022711067
-0.57528627 -0.028547805 0.024966549
-0.52348697 -0.028576281 0.022763252
-0.47465318 -0.028753469 0.022315968
-0.42365879 -0.028285936 0.022928538
-0.37497282 -0.028028769 0.024947094
-0.3260645 -0.027978197 0.022764027
-0.27708954 -0.029729882 0.023400124
-0.22538564 -0.028032243 0.024147697
-0.17546543 -0.028816739 0.023998378
-0.12660983 -0.027392153 0.024697002
-0.077619873 -0.027136154 0.02321738
-0.038696028 -0.016166173 0.025128171
-0.80594873 0.023759529 0.0057167709
-0.77472514 0.039154358 0.022524407
-0.72576612 0.023794824 0.025118085
-0.6747399 0.023031192 0.027468832
-0.62248319 0.024807185 0.026848417
-0.57110006 0.021436382 0.023690667
-0.52735049 0.02672473 0.027502498
-0.47597459 0.030148953 0.029431911
-0.42612064 0.028163437 0.028970677
-0.37253326 0.030403893 0.029769154
-0.32926637 0.028136959 0.026180252
-0.27437183 0.023991236 0.02452388
-0.22577216 0.022297338 0.025599908
-0.17308585 0.02416176 0.029327201
-0.13077804 0.025256043 0.022103017
-0.077343598 0.024603387 0.025798209
-0.034232739 0.026805704 0.023922628
0.0034756362 0.040660739 0.0033928454
-0.81040353 0.073632635 0.015859354
-0.77789301 0.072188586 0.030650016
-0.72628403 0.072157048 0.027127359
-0.6788367 0.071904905 0.025995957
-0.6267305 0.08500012 0.02855367
-0.56750512 0.081711628 0.023427675
-0.52045649 0.072687045 0.02462315
-0.47856268 0.072649173 0.026890481
-0.42481416 0.068382695 0.027708381
-0.37129274 0.072179466 0.027579503
-0.32642597 0.073213868 0.029486133
-0.27832365 0.07728643 0.023787508
-0.22449715 0.084225588 0.027207391
-0.17110942 0.07512898 0.024989597
-0.12613381 0.072990686 0.028886642
-0.074080057 0.072484612 0.029591694
-0.02461523 0.072526373 0.02530661
0.0066800974 0.074121639 0.007812419
-0.80995077 0.13118464 0.026939029
-0.77958876 0.12335715 0.025911449
-0.72617364 0.12083694 0.027247436
-0.66923422 0.1123359 0.030739529
-0.62378412 0.11180874 0.025357516
-0.57487416 0.12107221 0.031884007
-0.52240705 0.11892567 0.028423021
-0.4751808 0.11922861 0.025999848
-0.42433354 0.12098674 0.027215065
-0.37363464 0.12011679 0.027447779
-0.32255617 0.12304569 0.025123805
-0.27879831 0.11910293 0.025332093
-0.22732234 0.11677544 0.02703622
-0.17514294 0.12095025 0.025945343
-0.1261559 0.12270987 0.02949951
-0.074755289 0.12298771 0.033035148
-0.021676319 0.12512763 0.02780604
0.011422512 0.12785719 0.016265841
-0.80916119 0.17676368 0.027984707
-0.78174943 0.17461932 0.023958888
-0.72993332 0.17613773 0.028978374
-0.66468155 0.17489263 0.023822915
-0.62264884 0.17574078 0.013935479
-0.57030922 0.17351003 0.034119628
-0.52315539 0.17588669 0.018017393
-0.47461712 0.17438315 0.015317603
-0.42232877 0.17494766 0.013429251
-0.37531927 0.1760809 0.014303249
-0.32588503 0.17588532 0.016634146
-0.27636024 0.17471957 0.013175796
-0.22669978 0.17376713 0.013084373
-0.17962909 0.17570996 0.02155748
-0.12374917 0.17408942 0.030950258
-0.072848715 0.17655751 0.032706134
-0.022294216 0.17704698 0.027282557
0.013084558 0.17394939 0.024565311
-0.80964667 0.22578284 0.027829586
-0.77973866 0.22587714 0.022091335
-0.72905529 0.22209463 0.025516929
-0.66412854 0.22865693 0.030927118
-0.62063825 0.2254134 0.014094317
-0.57033277 0.2205784 0.03556671
-0.52110469 0.22422978 0.021350818
-0.47311836 0.22520059 0.023824859
-0.4243744 0.2255747 0.017365595
-0.37796792 0.22485246 0.023146348
-0.3253777 0.22473399 0.020243878
-0.27733284 0.2257936 0.01587262
-0.22698627 0.22479816 0.012120862
-0.18118542 0.22131777 0.025614781
-0.12660475 0.2223458 0.033303842
-0.075228691 0.22660533 0.034300555
-0.018380173 0.22843951 0.026963515
0.012360636 0.22628273 0.025345577
-0.80883479 0.27768061 0.026288453
-0.78053737 0.27441016 0.023569833
-0.72469676 0.27418786 0.026988193
-0.6533674 0.27910465 0.017125558
-0.62336159 0.27944979 0.017398378
-0.57140875 0.27781302 0.036679432
-0.52892512 0.27234152 0.033160951
-0.47407579 0.27248663 0.026379114
-0.42461476 0.26529345 0.02092869
-0.37484244 0.27115101 0.022393847
-0.32826924 0.27300289 0.026521213
-0.2761178 0.26895756 0.017291322
-0.22658965 0.27257031 0.012147247
-0.1801787 0.27171633 0.021494366
-0.12551521 0.27258447 0.029246105
-0.0761877 0.27116627 0.033163216
-0.020539965 0.27670789 0.026184991
0.012834485 0.27736524 0.024622628
-0.80924749 0.32462934 0.027703555
-0.766572 0.32623109 0.019726489
-0.72905493 0.32570702 0.024837313
-0.66236085 0.32276103 0.035847142
-0.62107307 0.32686901 0.011489956
-0.57249254 0.327692 0.037179705
-0.52425325 0.32450753 0.037267078
-0.48151064 0.33268315 0.037367649
-0.43051538 0.34980172 0.041563973
-0.37520775 0.3497968 0.037617385
-0.32554153 0.32614434 0.031991519
-0.28480831 0.32622954 0.033996265
-0.2198931 0.32404754 0.0098193316
-0.18034576 0.3235859 0.022522081
-0.12390392 0.32241094 0.033067506
-0.067542344 0.33174255 0.027509235
-0.020998716 0.32691956 0.027115619
0.011384687 0.32657471 0.027795574
-0.8084752 0.37388775 0.029204667
-0.76526839 0.37314063 0.018244177
-0.71586061 0.37210089 0.020206882
-0.66287053 0.37490749 0.028414141
-0.61207038 0.36012527 0.02382144
-0.57195747 0.37885416 0.039712999
-0.52421206 0.37446579 0.038686436
-0.48117501 0.37530884 0.037761431
-0.43962848 0.37542129 0.0357382
-0.39713135 0.37531382 0.027532781
-0.32819352 0.36846155 0.032736033
-0.29690844 0.37378693 0.042709813
-0.22687671 0.35546029 0.01054427
-0.17863728 0.3740001 0.018947
-0.12671758 0.37324965 0.022903912
-0.076887786 0.37308466 0.023727791
-0.031451844 0.37435326 0.02314679
0.0038893402 0.371739 0.025359483
-0.81001782 0.42445007 0.029942723
-0.76739711 0.41994464 0.019162808
-0.7245425 0.41621718 0.017532155
-0.66233987 0.42831761 0.028335592
-0.63673639 0.44445181 0.028908201
-0.56499982 0.42769104 0.035763778
-0.52590072 0.4252156 0.037190598
-0.48103046 0.41637108 0.030884422
-0.42734623 0.40633434 0.024878457
-0.37601489 0.40607935 0.024436694
-0.32445219 0.42407578 0.030677352
-0.29659894 0.4240582 0.029840479
-0.17953913 0.43006659 0.020163057
-0.12347484 0.42688978 0.025177419
-0.083116114 0.42000803 0.022492323
-0.03300124 0.4216069 0.025039537
-0.0044813924 0.42072287 0.024913874
-0.80904335 0.47675791 0.031029798
-0.77168769 0.47097319 0.019683935
-0.72821605 0.46891809 0.017141294
-0.66069657 0.47602394 0.024422238
-0.64145023 0.47770676 0.027474679
-0.5735935 0.45707354 0.032383759
-0.52643979 0.4764373 0.037422594
-0.47815067 0.47928753 0.028988658
-0.32065663 0.47632965 0.029189138
-0.29694161 0.47121435 0.031040907
-0.20032072 0.48131406 0.048026323
-0.1793398 0.47706267 0.020379363
-0.1228888 0.4736484 0.026871808
-0.088719897 0.46518505 0.023549624
-0.037382796 0.46852776 0.023330346
0.013226746 0.46531111 0.02691249
-0.80899578 0.52428669 0.031608403
-0.76223654 0.51931095 0.018127346
-0.71080005 0.51248479 0.015954945
-0.66154093 0.53395182 0.031773683
-0.62641793 0.53153706 0.029744415
-0.57407427 0.53166717 0.032067057
-0.52933592 0.53005475 0.02995735
-0.4759247 0.52950263 0.023560675
-0.42630747 0.53602773 0.027546022
-0.38020322 0.53614038 0.025977191
-0.32523462 0.52519751 0.027007448
-0.27827492 0.53872257 0.021894308
-0.22828382 0.53435683 0.013312452
-0.17372906 0.52824694 0.023804856
-0.12683591 0.52768612 0.024133885
-0.073287591 0.51241684 0.021736318
-0.027041325 0.51627541 0.02175731
0.0063869501 0.51165372 0.023718283
-0.80959356 0.5772143 0.030765455
-0.77455908 0.57569951 0.021405375
-0.70795053 0.54924989 0.015489453
-0.66233844 0.55723321 0.016927943
-0.63603777 0.56545341 0.019270582
-0.57126403 0.55565107 0.024333693
-0.51613575 0.57487118 0.025083648
-0.4756991 0.56423652 0.014654906
-0.43029097 0.55291069 0.010854847
-0.3823854 0.5623939 0.014641228
-0.33182073 0.56852615 0.019094231
-0.29559803 0.55382001 0.017026491
-0.22955154 0.55771321 0.010950658
-0.16763705 0.56514633 0.012159768
-0.11687083 0.55385441 0.012204551
-0.07276994 0.56236023 0.018595705
-0.024575993 0.56466198 0.020781448
0.0078016105 0.55913955 0.023373658
-0.80830103 0.62658286 0.029178021
-0.77406406 0.62715399 0.021461027
-0.70705462 0.59805566 0.014259854
-0.66586661 0.60652119 0.019577462
-0.64455372 0.63383895 0.012831904
-0.5172779 0.62407637 0.02312337
-0.47115877 0.60944974 0.016083993
-0.42509165 0.5966596 0.014419254
-0.38071281 0.60956532 0.014824342
-0.33321378 0.61233932 0.017994072
-0.29924783 0.5962438 0.016474603
-0.15422331 0.61769092 0.0081380047
-0.12695648 0.60499388 0.0085709272
-0.078625791 0.61479706 0.016757227
-0.024295164 0.61811173 0.019526273
0.010786077 0.61642271 0.023279196
-0.80976218 0.67596143 0.030007318
-0.77469987 0.67695457 0.020358307
-0.70194775 0.65153646 0.010513756
-0.66234088 0.65944517 0.017144471
-0.64331609 0.6811887 0.016398573
-0.51684755 0.67554992 0.024179684
-0.47417828 0.66434538 0.016049899
-0.42181841 0.64968044 0.011964694
-0.3794443 0.66152436 0.012161837
-0.32986468 0.66412133 0.01871608
-0.28726318 0.65952879 0.017127495
-0.15677848 0.6725235 0.021623418
-0.13929319 0.64964271 0.0088181961
-0.073632032 0.66494673 0.016542941
-0.025784992 0.66709989 0.019107696
0.0096027274 0.66204333 0.024360633
-0.80826724 0.72736388 0.028376423
-0.77490973 0.72658241 0.022036206
-0.70862252 0.69789284 0.012542316
-0.66871834 0.7092523 0.019008927
-0.64499605 0.72952992 0.012459517
-0.5170539 0.72595465 0.028852886
-0.4759877 0.71496361 0.017298289
-0.43609148 0.68157649 0.0064178649
-0.37375906 0.70249152 0.011465734
-0.32762277 0.70530999 0.01704056
-0.28989115 0.69009072 0.013990675
-0.1551452 0.71815073 0.019189771
-0.13523394 0.68812579 0.0085012903
-0.081633449 0.713934 0.019398021
-0.031952783 0.71800399 0.021261197
-0.010263176 0.6953398 0.020216255
-0.80700213 0.75814593 0.03636365
-0.77338868 0.77184099 0.023819009
-0.69950503 0.73395973 0.0067247255
-0.66398966 0.75934207 0.014596703
-0.64465195 0.78027672 0.016459813
-0.51493675 0.77407044 0.029206198
-0.47690073 0.75538623 0.023019364
-0.42819569 0.75623524 0.032106869
-0.37705037 0.75621372 0.027641738
-0.32097888 0.7686317 0.0236338
-0.28367677 0.77479756 0.02515558
-0.15948661 0.7756815 0.026305547
-0.12056783 0.74784732 0.011851609
-0.078335829 0.76388437 0.017754041
-0.032356996 0.75355887 0.01281039
0.01113869 0.76309139 0.027973274
-0.77201557 0.82549828 0.025880033
-0.71885449 0.80443001 0.012751084
-0.67507428 0.80581492 0.014765306
-0.64257973 0.8252452 0.012917713
-0.51501197 0.8246699 0.029708665
-0.46267202 0.78411108 0.013237054
-0.31400946 0.82395405 0.023259457
-0.28169215 0.82545388 0.030178262
-0.15916575 0.82148683 0.026875248
-0.11867858 0.80398929 0.011072687
-0.075247936 0.81527811 0.017521683
-0.028145561 0.81172085 0.019637415
0.0084533477 0.81649745 0.045176093
-0.77052605 0.87474197 0.026050013
-0.72202986 0.8618136 0.016095527
-0.6532405 0.80979776 0.0016381722
-0.64049888 0.87615579 0.01527413
-0.51601863 0.87566 0.03217091
-0.48223275 0.85386211 0.020922979
-0.31615385 0.87516588 0.022605941
-0.28190753 0.87569106 0.029395165
-0.15850475 0.87246895 0.022340283
-0.1202483 0.87382209 0.018882561
-0.097363524 0.84524155 0.012519804
-0.02917129 0.86136907 0.018191097
0.0086714346 0.87190115 0.042575311
-0.77027661 0.92517555 0.026625082
-0.72293937 0.91332781 0.016599851
-0.66040105 0.8912071 0.0098875081
-0.64057064 0.92652971 0.018622914
-0.51629698 0.92643005 0.031330884
-0.48051012 0.90805358 0.023101347
-0.31596407 0.92569935 0.024006438
-0.28309798 0.92312402 0.028190622
-0.15849625 0.92177057 0.023959612
-0.1210835 0.92578721 0.020447545
-0.08461196 0.91319746 0.016325792
-0.037858795 0.91321892 0.018902889
0.0072843647 0.92860943 0.037559047
-0.77168483 0.9757781 0.027363904
-0.72106767 0.96024728 0.016107837
-0.65775609 0.93557525 0.0092485026
-0.64216453 0.97496212 0.019587135
-0.55420899 0.9984448 0.032722324
-0.51652747 0.97561193 0.029559212
-0.47870538 0.95083308 0.017879467
-0.31708747 0.97683269 0.02376795
-0.28139269 0.97346902 0.027156446
-0.15837181 0.97202665 0.020672804
-0.12066969 0.97400218 0.02163229
-0.085918523 0.95942283 0.017461576
-0.039394122 0.96017462 0.017311273
0.0075135306 0.97576082 0.040152051
-0.77153236 1.0240307 0.027812175
-0.72303754 1.0089344 0.015605051
-0.65131968 0.97843814 0.0086233672
-0.64072675 1.0267873 0.01237338
-0.5563162 1.0285475 0.029578567
-0.51768458 1.0092653 0.021832861
-0.47985688 1.0020055 0.018668447
-0.36408153 1.0483155 0.031931013
-0.31978005 1.0270381 0.025279723
-0.28676486 0.9929105 0.015696414
-0.24418651 1.0257232 0.019819129
-0.15721598 1.024853 0.024071891
-0.12144132 1.0217466 0.021118268
-0.087253243 1.0056916 0.015509761
-0.040073983 1.0069338 0.0190506
0.0044441181 1.0218259 0.039267216
-0.76943016 1.0748761 0.025733318
-0.71293062 1.0449605 0.0091270339
-0.65334797 1.0302064 0.0062368554
-0.63705951 1.0746082 0.019550519
-0.55653393 1.0743834 0.030570077
-0.51602811 1.0566417 0.020948403
-0.4754656 1.0673622 0.023907607
-0.436692 1.0495236 0.010192495
-0.36961517 1.0913589 0.028543567
-0.32930329 1.0645183 0.018355235
-0.29128525 1.0391502 0.012842678
-0.2427844 1.076842 0.015329341
-0.15980913 1.0719846 0.019773258
-0.11886421 1.0736828 0.021091018
-0.08454778 1.0570087 0.015434168
-0.043195091 1.0137738 0.0022017981
0.0044665122 1.0684624 0.039127156
-0.76944041 1.1268433 0.026887231
-0.72194159 1.1064807 0.012645471
-0.64277416 1.027456 -0.010564966
-0.6406244 1.1282238 0.016856408
-0.56389332 1.1186028 0.026305379
-0.52235335 1.0840656 0.012153022
-0.47826025 1.084059 0.008820517
-0.43297938 1.0837575 0.012405706
-0.37020177 1.1045796 0.017363513
-0.32293439 1.1026021 0.011691923
-0.28159562 1.0709021 0.0023996294
-0.24133599 1.1251587 0.018541519
-0.15763378 1.121209 0.022461301
-0.11954017 1.1231356 0.020201465
-0.08408127 1.0706625 0.0019284207
-0.035333037 1.1102729 0.016115857
0.00409998 1.1247764 0.040021773
-0.77012253 1.1743551 0.027212905
-0.72609073 1.1569211 0.013349011
-0.67293483 1.1288792 0.0020027088
-0.64238912 1.1770846 0.016608804
-0.55829221 1.1735002 0.02840526
-0.51543605 1.1580399 0.016939545
-0.46704674 1.1592964 0.0094272373
-0.41229922 1.1321073 -0.00046377187
-0.37455297 1.1562575 0.0085785156
-0.32941222 1.136439 0.002049559
-0.28088036 1.1562936 0.013923592
-0.24099348 1.1795764 0.018305521
-0.15733877 1.173099 0.023625834
-0.1183287 1.1759176 0.021654936
-0.091553986 1.1404943 0.0071537388
-0.041560035 1.1540332 0.016030096
0.0046672057 1.1748669 0.042004529
-0.80087167 1.2499092 0.027242184
-0.77086991 1.2255008 0.027980128
-0.71897674 1.2060788 0.012572763
-0.64763045 1.1660986 0.0013664452
-0.63968468 1.2213709 0.018396441
-0.56066412 1.2299718 0.024901325
-0.51606905 1.2058649 0.015749181
-0.47119614 1.2051344 0.010958744
-0.42144969 1.1848354 0.0036865331
-0.37895665 1.2045637 0.010538903
-0.33946595 1.1814061 0.0031969273
-0.28258055 1.2050004 0.013044873
-0.24136285 1.2252616 0.015223689
-0.15651654 1.2258184 0.021968117
-0.11380602 1.226958 0.022853306
-0.07624311 1.1865835 0.0045653591
-0.029320613 1.2097822 0.017281055
0.0071429238 1.2270989 0.032801144
-0.80139959 1.2783206 0.03164573
-0.7711364 1.275424 0.024338568
-0.71747404 1.2333682 0.0012121855
-0.66650832 1.2456788 0.0099109942
-0.62135768 1.1302637 -0.039922263
-0.56309891 1.2710382 0.023871036
-0.51964778 1.2516447 0.013596801
-0.47442526 1.2534956 0.0075722509
-0.43062678 1.2298305 -0.0010642624
-0.37204087 1.2525213 0.0071796533
-0.32542339 1.2198945 -0.00021393513
-0.27530888 1.2575597 0.011176235
-0.24000435 1.2732551 0.015618518
-0.16042303 1.2831274 0.027604526
-0.11059456 1.2805351 0.016818052
-0.086455233 1.2352641 0.0084452406
-0.035074543 1.2459788 0.012220918
0.0087573836 1.272409 0.032200158
-0.80187738 1.327669 0.02975972
-0.76774037 1.3033812 0.017619137
-0.72242987 1.30225 0.0066955294
-0.67039013 1.2600079 -0.003724711
-0.64733303 0.98119873 -0.11840827
-0.55558223 1.3298635 0.012891516
-0.51139086 1.2804036 0.0063292226
-0.46321872 1.2755258 -0.0013689183
-0.41150627 1.2157035 -0.021958331
-0.38253942 1.2665735 -0.0029255722
-0.34524766 1.230026 -0.017081885
-0.28755054 1.2781078 0.0021239165
-0.23829539 1.325449 0.017482078
-0.15822443 1.3231885 0.011699945
-0.11349054 1.3252968 0.019214241
-0.084390216 1.2444772 -0.009162182
-0.026045371 1.3089615 0.017319188
0.0079844128 1.3279498 0.029738903
-0.80201739 1.3782461 0.027540281
-0.76310664 1.3530263 0.016699657
-0.72212023 1.350401 0.0081384405
-0.67101741 1.3351607 0.0030953886
-0.64100033 1.3719108 0.01750084
-0.558465 1.3753598 0.015248903
-0.51329195 1.3512762 0.010680758
-0.46709678 1.3526191 0.0069140205
-0.41156051 1.3277099 -0.0041840184
-0.37498793 1.3516191 0.0069086044
-0.33060917 1.3209813 -0.0075768884
-0.27778205 1.3528101 0.0092686219
-0.24030274 1.3702904 0.017985409
-0.15513992 1.366112 0.014667213
-0.11109469 1.3724365 0.015079859
-0.095217966 1.3300003 0.0024551617
-0.031997968 1.358925 0.018672137
0.0078169815 1.3757613 0.029486666
-0.80358756 1.4025792 0.046149597
-0.76808351 1.4215388 0.024280084
-0.7016865 1.3569058 -0.007170748
-0.66815895 1.3970579 0.010873591
-0.6422869 1.4163035 0.012737984
-0.56097919 1.4243664 0.016957972
-0.51998776 1.4037855 0.013223228
-0.4732632 1.4008973 0.0073952246
-0.42387873 1.3807005 -0.0024336448
-0.38377321 1.3996968 0.0057262643
-0.3397691 1.376513 -0.004423195
-0.27012917 1.4049681 0.012784546
-0.23845182 1.4237299 0.016110448
-0.15280969 1.4145336 0.016516156
-0.11492196 1.4248192 0.018904438
-0.081406362 1.3774447 0.0042641205
-0.036542308 1.3924483 0.013209968
0.0066643259 1.4224256 0.030134266
-0.75804627 1.4524087 0.015809849
-0.7268815 1.4529165 0.030148325
-0.682827 1.4522442 0.032394171
-0.60019207 1.4764062 0.043351859
-0.55488235 1.4780841 0.016956318
-0.52609485 1.4265 0.0035504168
-0.46400604 1.4271208 0.0070497436
-0.40041465 1.3419307 -0.028051538
-0.36901107 1.4077652 -0.0040886481
-0.31979001 1.3493205 -0.030475078
-0.27527213 1.4345925 0.0058090896
-0.23983186 1.4729775 0.020758905
-0.074022487 1.4529808 0.024724344
-0.034684163 1.4530921 0.033709008
-0.56028789 1.5256534 0.02022001
-0.52000505 1.4991509 0.01068564
-0.48893887 1.5320802 0.029430937
-0.30920616 1.5267178 0.015100859
-0.26999459 1.5260909 0.024419518
-0.23990634 1.5216684 0.021817282
-0.55725932 1.571324 0.016192671
-0.51806372 1.5526524 0.01325282
-0.4772599 1.5849524 0.022424422
-0.42607805 1.5829929 0.025220359
-0.3781018 1.584637 0.024867304
-0.32916716 1.5836296 0.020266628
-0.27433193 1.5768783 0.021621071
-0.24079432 1.5735774 0.019110005
-0.55268764 1.6096236 0.0089649856
-0.50895405 1.5550858 -0.00011580491
-0.47243622 1.5808889 0.011032091
-0.42527351 1.5482078 -0.001388742
-0.38003469 1.5786686 0.013537833
-0.33705166 1.5461168 -0.0029210162
-0.29170698 1.5514214 0.00050794141
-0.24379539 1.6060103 0.029784819
-0.72340536 -0.018789548 0.070878692
-0.67670894 -0.020499738 0.069636449
-0.6252287 -0.022211168 0.071719371
-0.57507461 -0.02009031 0.072933748
-0.52418458 -0.022596702 0.069667161
-0.47498855 -0.021143313 0.072580859
-0.42318884 -0.022800246 0.071098693
-0.37512556 -0.020719565 0.071612991
-0.32372233 -0.022448257 0.070878014
-0.27220228 -0.022057213 0.071005568
-0.22525875 -0.02179952 0.071741857
-0.17590563 -0.021768818 0.074045576
-0.12639949 -0.020946881 0.071028762
-0.076112442 -0.019093085 0.072689101
-0.040816683 -0.011581583 0.066864252
-0.80658609 0.037056375 0.071367644
-0.7762503 0.038569279 0.066930488
-0.71964031 0.01190198 0.069168404
-0.67664009 0.0149807 0.070519805
-0.62319839 0.011225786 0.069593482
-0.57511204 0.013309245 0.06864471
-0.5228526 0.015739126 0.067917332
-0.47390169 0.021652745 0.07227312
-0.42327145 0.028337896 0.073761828
-0.37653819 0.022955133 0.073814005
-0.32472539 0.021935266 0.07192757
-0.273045 0.013347882 0.06858743
-0.22249553 0.01207369 0.070074685
-0.17492642 0.01210834 0.069058299
-0.12763387 0.012974651 0.068342298
-0.073593937 0.021865092 0.066976532
-0.032265492 0.031040022 0.071695916
0.0026096553 0.033351928 0.052997023
-0.80924648 0.076705419 0.07162302
-0.78102487 0.075624913 0.069748856
-0.72392249 0.08164157 0.06778691
-0.67719233 0.090725191 0.077823393
-0.62863523 0.089135639 0.07632418
-0.57711613 0.091489784 0.084752746
-0.52568132 0.090300143 0.079353921
-0.47585195 0.071375839 0.069855891
-0.42476141 0.060832821 0.077702045
-0.3770043 0.059952877 0.069402702
-0.33080259 0.0841894 0.076338552
-0.2750029 0.090887249 0.081583463
-0.2268741 0.085893042 0.068642996
-0.16663113 0.094626784 0.069281459
-0.1090666 0.080175549 0.059548136
-0.070689984 0.073956117 0.060167037
-0.031451419 0.071757995 0.065462843
-0.81024778 0.12614748 0.070992172
-0.77814811 0.12147447 0.076743431
-0.72296625 0.11807939 0.078497089
-0.6725347 0.11852243 0.079640165
-0.62135309 0.11672419 0.077983819
-0.57535893 0.11940915 0.074085332
-0.52467072 0.1151585 0.071754634
-0.47590241 0.1169529 0.074160263
-0.42447877 0.1147031 0.076708272
-0.37478289 0.1167891 0.074154496
-0.32372344 0.11462539 0.073827177
-0.27344257 0.11409741 0.067114875
-0.2290577 0.1095676 0.07477212
-0.17405555 0.12879853 0.069355108
-0.12844858 0.12354927 0.076122463
-0.068114378 0.12262655 0.06543199
-0.027345534 0.12661794 0.071347132
0.01106924 0.12892415 0.075802825
-0.81034029 0.17634724 0.074674316
-0.78067505 0.17443348 0.078409649
-0.72030562 0.17460944 0.082772791
-0.67568338 0.17640299 0.08218196
-0.61762995 0.17634076 0.079961203
-0.58452135 0.1746645 0.06953235
-0.53005153 0.17839818 0.057540521
-0.1724629 0.1764368 0.07153973
-0.1320646 0.1732592 0.072314508
-0.067866914 0.17369969 0.068738706
-0.027487714 0.17420337 0.071186379
0.011128954 0.17711599 0.081734933
-0.80963564 0.22602177 0.069400005
-0.77876443 0.22272837 0.079484358
-0.71937293 0.22570269 0.084224649
-0.67409521 0.22440936 0.085021906
-0.61853725 0.22732919 0.077256456
-0.58132315 0.22445033 0.07137502
-0.52729249 0.22937863 0.069791369
-0.48068729 0.2395712 0.067075752
-0.32830837 0.23711997 0.058392867
-0.28433806 0.23437145 0.078351714
-0.17447805 0.21968889 0.068383396
-0.13403934 0.2261924 0.079113714
-0.06791158 0.22732919 0.066630095
-0.025357133 0.22447261 0.072053492
0.0097100362 0.22629049 0.078825153
-0.8100602 0.27607092 0.073439397
-0.77817959 0.2749384 0.079278536
-0.7192595 0.2740472 0.082167864
-0.67419863 0.27605 0.084178008
-0.61765873 0.27514201 0.075959638
-0.58084756 0.27589926 0.069223039
-0.51987684 0.27422455 0.067697786
-0.48244867 0.27409744 0.064396441
-0.3814339 0.28138912 0.096659616
-0.32092905 0.26953775 0.063449271
-0.28435677 0.27053639 0.070198052
-0.17709358 0.2697503 0.069541849
-0.13669716 0.27475384 0.07610549
-0.06855192 0.2753157 0.067785256
-0.026934605 0.27396831 0.071384296
0.01062094 0.27502397 0.077906102
-0.81076163 0.32519814 0.071297184
-0.77986151 0.32326689 0.077847645
-0.71960008 0.32191274 0.081613824
-0.67685276 0.32880199 0.087605938
-0.6211549 0.32672864 0.076760083
-0.58142066 0.33004397 0.071792841
-0.51892543 0.32770479 0.072949775
-0.47785798 0.3306168 0.076856136
-0.42302239 0.34294775 0.07883919
-0.37456012 0.33711222 0.092042275
-0.32165289 0.32720464 0.071426123
-0.28173155 0.32632416 0.081342384
-0.22644611 0.33731374 0.095401309
-0.17899679 0.33210438 0.078146003
-0.13776258 0.32489014 0.082827829
-0.06099987 0.3271423 0.073214643
-0.024658633 0.32589903 0.071122967
0.010221842 0.32344311 0.080324031
-0.81074244 0.37392455 0.07224723
-0.78067237 0.37266636 0.078108817
-0.71935785 0.37040725 0.081458949
-0.67796409 0.37293032 0.087911285
-0.62242913 0.37538192 0.077435926
-0.58208489 0.37711278 0.067818828
-0.51743501 0.3742218 0.065329753
-0.47780368 0.37734991 0.06750638
-0.42288399 0.3835437 0.065783426
-0.37012675 0.38303521 0.066695541
-0.32344687 0.37844634 0.065645985
-0.28815511 0.37832758 0.064159676
-0.18134765 0.37852082 0.073711485
-0.13014159 0.36971581 0.08622776
-0.06667991 0.36572313 0.061760526
-0.024089631 0.37474766 0.074494943
0.013002935 0.37679079 0.075478852
-0.81112915 0.42319933 0.072366856
-0.77791435 0.42392206 0.07609012
-0.71664649 0.42242086 0.079539806
-0.67070836 0.42608732 0.089115173
-0.62579966 0.41825143 0.075946912
-0.57881057 0.42430997 0.07073094
-0.5190134 0.42117646 0.068738408
-0.48343477 0.41873217 0.063440792
-0.37920317 0.37516153 0.049567673
-0.34688818 0.37847653 0.056756489
-0.32174563 0.42080092 0.065894082
-0.28452042 0.43400791 0.06870795
-0.21769702 0.44467038 0.083656281
-0.19299503 0.4232139 0.07324072
-0.16767834 0.4244484 0.09036696
-0.071210928 0.42644054 0.063563421
-0.020495078 0.42529464 0.071978062
0.012808198 0.42512339 0.075592145
-0.81141537 0.47479558 0.072316818
-0.76893717 0.47253558 0.076006666
-0.72558177 0.47085875 0.082748316
-0.68258381 0.47120634 0.089390062
-0.63717157 0.47690046 0.080239803
-0.5872401 0.46539658 0.072531015
-0.51649582 0.47254917 0.065493926
-0.49171782 0.47668725 0.06437666
-0.31860501 0.47456357 0.066317275
-0.28162259 0.48393628 0.072125018
-0.2071152 0.46842068 0.076701
-0.17205763 0.47135121 0.079229742
-0.12077724 0.46238837 0.089598656
-0.069480941 0.4723697 0.067632407
-0.016717983 0.47518107 0.077869788
0.013245707 0.47626114 0.075979985
-0.81100959 0.52518648 0.072069071
-0.77807873 0.5202269 0.075809829
-0.71447641 0.51465172 0.077988669
-0.65748107 0.51509792 0.089213207
-0.61828184 0.51155555 0.079464652
-0.57498688 0.51895517 0.074550144
-0.51785493 0.52602959 0.069193833
-0.48017475 0.53177488 0.065999135
-0.42760631 0.5398441 0.067025609
-0.37509292 0.54004139 0.070458315
-0.32362482 0.52970833 0.0665702
-0.27956703 0.5297069 0.065326817
-0.1854313 0.51398671 0.074310623
-0.17907445 0.48325476 0.078552246
-0.071825318 0.52080208 0.073226601
-0.020599959 0.51742941 0.074777313
0.013623285 0.52662361 0.074658811
-0.81113875 0.5664956 0.072591662
-0.78267848 0.5656001 0.077751994
-0.72456777 0.57257801 0.07908643
-0.6756959 0.57208645 0.081671849
-0.62938726 0.56439543 0.080731742
-0.57784891 0.55362099 0.067101084
-0.52106488 0.57391298 0.06638734
-0.48533976 0.56995457 0.066024221
-0.42296952 0.55712712 0.061319485
-0.36294514 0.55778396 0.069964804
-0.31965268 0.57263601 0.064284287
-0.28379861 0.57525045 0.068918876
-0.17791274 0.57398403 0.079799995
-0.15791714 0.542373 0.070907079
-0.073266655 0.57578987 0.078089811
-0.030841906 0.55124331 0.075397879
0.014460157 0.57554102 0.075619251
-0.79745549 0.61300087 0.074769966
-0.77251333 0.61160439 0.075240612
-0.72724491 0.62437075 0.079546943
-0.67456728 0.62327385 0.073121764
-0.62550682 0.62377101 0.078764074
-0.59766459 0.61892724 0.083226413
-0.5137803 0.62578177 0.06722112
-0.48922309 0.62126267 0.067037858
-0.31781393 0.61656052 0.063380107
-0.28211945 0.6270926 0.061960708
-0.2006982 0.60280365 0.087834388
-0.16937844 0.62087268 0.063070253
-0.16070499 0.5975033 0.066249661
-0.078921475 0.6245479 0.078300439
-0.020591138 0.60999858 0.077063724
0.014919119 0.62503988 0.075956419
-0.7984671 0.67909062 0.071514077
-0.78510678 0.67593396 0.076572493
-0.72210711 0.67229056 0.072959594
-0.67471033 0.67558873 0.076353364
-0.62441844 0.67345166 0.07991527
-0.59470248 0.67943209 0.087570734
-0.51750094 0.6772067 0.076805696
-0.48348862 0.66901928 0.074013233
-0.31293646 0.66872197 0.062174849
-0.28194627 0.67852938 0.06249084
-0.15694796 0.67139369 0.064308904
-0.146468 0.64810914 0.069249913
-0.080410302 0.67000228 0.080218568
-0.027909789 0.6568318 0.077953361
0.016665522 0.67681938 0.07706891
-0.79542649 0.73808455 0.074541062
-0.78563166 0.7257567 0.075354211
-0.72662842 0.72444576 0.074710235
-0.67464286 0.72647142 0.075118214
-0.62923586 0.72557998 0.081323527
-0.57950836 0.73376817 0.092710964
-0.51312137 0.72730434 0.072361842
-0.48109671 0.72742468 0.068729125
-0.41354132 0.73996341 0.058968462
-0.36878204 0.74069089 0.060352281
-0.31390744 0.73029053 0.061724875
-0.28170493 0.72518677 0.059342045
-0.20084091 0.7900632 0.074253388
-0.13555361 0.69986057 0.06618613
-0.080399141 0.72020483 0.082419336
-0.018867599 0.74713016 0.074350633
0.016158003 0.72359765 0.077652983
-0.7932412 0.78822124 0.076629207
-0.76965678 0.78572804 0.072135627
-0.69035035 0.83761227 0.065856978
-0.65750116 0.79128379 0.071675494
-0.63162583 0.77305895 0.082770444
-0.59737509 0.77670538 0.080782682
-0.51431358 0.77528405 0.065568767
-0.47690281 0.76781929 0.059261687
-0.41726047 0.75429237 0.057980139
-0.37137619 0.75810367 0.058065739
-0.31680202 0.77296543 0.065383501
-0.28264815 0.77582395 0.059483096
-0.17766729 0.80704385 0.074627623
-0.17716423 0.80902839 0.057337102
-0.082270108 0.77479982 0.082371891
-0.020244349 0.77385652 0.076956548
0.0080695702 0.75945109 0.074257322
-0.79325676 0.84072161 0.076347642
-0.76716536 0.82213503 0.069279671
-0.68206036 0.8553226 0.073699638
-0.659715 0.83496839 0.077759519
-0.62823176 0.79499364 0.070470601
-0.59731907 0.81691003 0.080174237
-0.5141778 0.8249616 0.063527264
-0.49244207 0.82113737 0.059593242
-0.31606975 0.82777143 0.065446362
-0.28582513 0.82352322 0.062590592
-0.18809323 0.84662646 0.075924426
-0.14730746 0.81771559 0.072115578
-0.078933433 0.81931615 0.08233954
-0.024715871 0.82570106 0.073963672
0.0053243442 0.80414158 0.072520271
-0.78494114 0.89053375 0.078291595
-0.76103657 0.86998558 0.067112528
-0.72848672 0.8746025 0.07664609
-0.66066313 0.89628828 0.0770218
-0.62692708 0.84284693 0.068720423
-0.59724081 0.8778379 0.079258308
-0.51549512 0.87428147 0.063495375
-0.49048129 0.87560356 0.063869312
-0.31782776 0.87681305 0.067241617
-0.28301272 0.87235785 0.062383503
-0.190467 0.89291835 0.07535398
-0.15336949 0.86443853 0.06629739
-0.081937119 0.87527418 0.083412074
-0.027831113 0.88251853 0.072784752
0.0060031777 0.85400426 0.071184307
-0.81178176 0.91666079 0.083069086
-0.78260893 0.92435849 0.073041938
-0.72509325 0.92256767 0.070665509
-0.67186636 0.93714869 0.075866498
-0.62084091 0.89253563 0.06831196
-0.59714735 0.93938339 0.078321368
-0.516904 0.92513025 0.065765671
-0.49161541 0.93148315 0.064824991
-0.31695378 0.92868632 0.066600747
-0.28324947 0.92732579 0.063826516
-0.18304531 0.93894166 0.078672461
-0.14601037 0.91296732 0.06741862
-0.078855611 0.92987853 0.085062146
-0.040131062 0.9049738 0.060061503
0.0092279557 0.92531717 0.078176893
-0.80674422 0.9749611 0.066330865
-0.78178984 0.9757148 0.071886919
-0.72618425 0.97551346 0.074212179
-0.65380281 0.98685414 0.074423946
-0.62218159 0.94250244 0.069652729
-0.57506561 0.98513567 0.079351857
-0.51673216 0.97617203 0.066765435
-0.4886919 0.97593647 0.062133431
-0.3191601 0.97757691 0.063674204
-0.28372237 0.97648907 0.064905263
-0.17259029 0.98061544 0.080217697
-0.14043491 0.95944405 0.065608457
-0.075479172 0.97759789 0.083140023
-0.03611565 0.96625769 0.068548791
0.0092699891 0.97588724 0.078994989
-0.8064149 1.0246203 0.068656489
-0.78378361 1.0230519 0.068701163
-0.72162521 1.026083 0.074493393
-0.66392612 1.0355328 0.072444662
-0.62266147 0.99327654 0.067276649
-0.56302768 1.0219615 0.062089778
-0.52034754 1.0256618 0.065149888
-0.4893862 1.0249761 0.062818885
-0.32106575 1.0235555 0.063073598
-0.27604431 1.0235953 0.066893689
-0.22450078 1.0280758 0.073319212
-0.19728182 0.98622191 0.063694105
-0.14286318 1.0302646 0.077583119
-0.077667952 1.0247364 0.08335197
-0.024426771 1.0264628 0.074682526
