# .PCD v0.7 - Point Cloud Data file format
VERSION 0.7
FIELDS x y z
SIZE 4 4 4
TYPE F F F
COUNT 1 1 1
WIDTH 1637
HEIGHT 1
VIEWPOINT 0 0 0 1 0 0 0
POINTS 1637
DATA ascii
1.267556 0.86010498 2.4745691
1.305822 0.905864 2.4223161
1.287662 0.88204402 2.4562681
1.289368 0.85908699 2.443599
1.294235 0.85924298 2.43699
1.293192 0.87230098 2.400403
1.286893 0.865448 2.403872
1.2918659 0.85871702 2.3941801
1.318607 0.85726601 2.4054079
1.321897 0.85784 2.3992951
1.255397 0.86621201 2.506906
1.260065 0.865367 2.498024
1.273005 0.87742901 2.4567249
1.281903 0.87618202 2.4560831
1.276628 0.86217099 2.474226
1.283725 0.86228502 2.465091
1.288499 0.86098498 2.4583149
1.296736 0.86149198 2.4498849
1.294364 0.87258399 2.4076159
1.309651 0.86989999 2.432591
1.314592 0.86092597 2.427691
1.317082 0.85997099 2.417361
1.2605571 0.86493301 2.5112641
1.265872 0.86545497 2.502753
1.2708271 0.86475402 2.494971
1.289322 0.87808901 2.4741831
1.28855 0.87508202 2.479641
1.286666 0.88434702 2.432498
1.2845989 0.86448801 2.4459829
1.277431 0.88441598 2.4115379
1.30828 0.86231297 2.44818
1.313748 0.86235702 2.4396341
1.26266 0.86618102 2.520956
1.267283 0.86926198 2.5155611
1.278511 0.87380397 2.498673
1.2828799 0.87857097 2.4957869
1.2888809 0.873914 2.4855831
1.290463 0.86749899 2.4850099
1.295789 0.86624199 2.477206
1.300709 0.86806202 2.468637
1.2732641 0.87369198 2.5159681
1.2764781 0.87222898 2.512368
1.036393 0.785694 2.2583361
1.045704 0.78748697 2.2483699
1.051482 0.78733701 2.2461469
1.05275 0.78856301 2.2384391
1.0472471 0.78737998 2.2656031
1.052137 0.78795397 2.257143
1.072798 0.81374198 2.2348089
1.082314 0.81084698 2.2313941
1.071694 0.788001 2.2346289
1.076062 0.79123199 2.2315331
1.059328 0.78557801 2.258492
1.070824 0.803864 2.2372019
1.071324 0.788706 2.2464311
1.0888931 0.79826802 2.235182
1.084478 0.78639001 2.232223
1.090784 0.789738 2.2261281
1.073681 0.79073203 2.259161
1.095583 0.80681401 2.2647309
1.085539 0.79047799 2.246408
1.1018521 0.81488597 2.219003
1.097975 0.79117399 2.231818
1.12229 0.79991901 2.257431
1.084771 0.78913802 2.259254
1.11914 0.81690198 2.26279
1.100549 0.79107398 2.2457659
1.116351 0.82292002 2.2138529
1.112166 0.79010701 2.2286041
1.205236 0.81985301 2.2985311
1.101907 0.79282099 2.254519
1.155612 0.83554202 2.236382
1.111684 0.80207801 2.2336371
1.118737 0.79335302 2.2354131
1.130492 0.79449701 2.2295749
1.116343 0.793235 2.254416
1.127311 0.80400699 2.241246
1.128522 0.81841898 2.220742
1.130259 0.80411601 2.2238791
1.138232 0.79497099 2.227582
1.1309479 0.79646999 2.2526021
1.135178 0.79675198 2.247283
1.141544 0.79632199 2.2385349
1.147293 0.79711902 2.231118
1.136271 0.79789501 2.2585299
1.144675 0.81895 2.2359829
1.135833 0.81354702 2.236481
1.148133 0.81555098 2.2273681
1.159808 0.79945999 2.2339301
1.148629 0.798118 2.2660689
1.14923 0.79902202 2.2583749
1.1631 0.81800699 2.2643659
1.14586 0.824857 2.2337999
1.167299 0.79999697 2.23873
1.1583591 0.80197698 2.2638481
1.161813 0.81525201 2.2451961
1.180155 0.81410998 2.2648821
1.1767499 0.80482501 2.243089
1.165947 0.803096 2.2708931
1.17228 0.80420798 2.262876
1.1576819 0.83047801 2.245266
1.183092 0.80404902 2.249625
1.172798 0.80570197 2.276228
1.17418 0.819965 2.2556951
1.200989 0.83121598 2.2683949
1.202752 0.81308198 2.274318
1.182045 0.807886 2.282176
1.187153 0.80684799 2.274827
1.204621 0.81617701 2.2685721
1.199046 0.8075 2.259414
1.1900541 0.80851001 2.2881689
1.186666 0.819695 2.273293
1.20074 0.81007802 2.2734301
1.2163481 0.815202 2.2729609
1.211813 0.81079203 2.2616949
1.197384 0.81188202 2.2929871
1.20357 0.81127501 2.2874429
1.208769 0.81200999 2.280684
1.214143 0.81160301 2.2702091
1.205498 0.813622 2.3000431
1.199701 0.82543302 2.2833791
1.216561 0.81276298 2.2857959
1.221105 0.81447899 2.276907
1.224228 0.81465298 2.2702661
1.213415 0.81565303 2.305763
1.219529 0.81626099 2.2988589
1.225099 0.816028 2.2924409
1.231773 0.81568903 2.284534
1.236763 0.81852698 2.2788341
1.259133 0.86404097 2.321486
1.229965 0.83866298 2.3191249
1.231423 0.81801897 2.299087
1.239265 0.81773001 2.290864
1.163432 0.81807798 2.2460549
1.228403 0.82020801 2.31826
1.2336349 0.81996202 2.311079
1.239364 0.81931102 2.3036301
1.245283 0.81984001 2.295053
1.250778 0.822788 2.290441
1.237361 0.823062 2.324775
1.250006 0.83816499 2.319612
1.241872 0.82521701 2.3018031
1.253795 0.82089502 2.30319
1.236444 0.81924403 2.334111
1.267029 0.85677803 2.304317
1.258178 0.84122902 2.323441
1.255071 0.82400101 2.3167291
1.263104 0.82453001 2.3101079
1.248313 0.823322 2.3439231
1.251382 0.82805097 2.3352001
1.257375 0.82638901 2.329787
1.264958 0.834472 2.333245
1.268111 0.82530999 2.3135231
1.2593139 0.83098298 2.3425069
1.271158 0.84581798 2.332372
1.270406 0.828134 2.3294721
1.275068 0.82744098 2.321842
1.259248 0.82723302 2.354193
1.267144 0.84481698 2.3279679
1.280383 0.849774 2.334578
1.284162 0.842969 2.3390369
1.283985 0.83139998 2.328939
1.269433 0.83008701 2.366081
1.274302 0.83235103 2.3559029
1.2797019 0.83957499 2.3405859
1.285472 0.83164197 2.3401351
1.289731 0.83343202 2.3335061
1.276913 0.83439702 2.3692451
1.273077 0.839302 2.3456099
1.2883199 0.83528799 2.356616
1.292823 0.83839798 2.3379359
1.295669 0.83780199 2.340575
1.281719 0.83622599 2.3774791
1.288239 0.83589798 2.3686979
1.280498 0.85832602 2.3171909
1.2999181 0.83607101 2.3526759
1.286486 0.83725899 2.3906031
1.29574 0.86089998 2.359077
1.294522 0.84495002 2.3785269
1.302042 0.83678102 2.367727
1.306873 0.83979702 2.360785
1.285758 0.83903098 2.412163
1.2884279 0.84118497 2.402822
1.29204 0.84058601 2.3964469
1.300703 0.84574902 2.3813231
1.303761 0.84075201 2.38237
1.309868 0.83990401 2.3723929
1.310271 0.84199202 2.3654771
1.2847 0.842026 2.4276509
1.289099 0.84388298 2.4172421
1.294489 0.84327102 2.4096
1.295845 0.85702997 2.3757081
1.305398 0.84385997 2.3943529
1.310601 0.84192502 2.387181
1.3135509 0.84311998 2.3800631
1.2825561 0.84647697 2.440351
1.287763 0.84495401 2.432739
1.290409 0.86553401 2.3944061
1.281172 0.84923702 2.397527
1.294116 0.85281497 2.396374
1.313701 0.84570301 2.3993011
1.315761 0.84527701 2.3937991
1.260115 0.85372698 2.485023
1.267305 0.85073 2.480262
1.272172 0.85194898 2.4680741
1.277656 0.85057199 2.4621661
1.2838759 0.849733 2.451241
1.2897 0.84936702 2.44542
1.295651 0.84838402 2.4374089
1.298219 0.86296701 2.4074011
1.307906 0.848827 2.422817
1.3136359 0.847063 2.4131579
1.3162 0.84807402 2.4069309
1.247208 0.85116702 2.512517
1.2554359 0.85411 2.50653
1.261459 0.86266899 2.476347
1.264356 0.85440898 2.492218
1.271929 0.85296899 2.48353
1.277391 0.85316998 2.474231
1.2841001 0.85341698 2.4667971
1.285872 0.86934298 2.404937
1.289555 0.86471099 2.4257419
1.298207 0.87112498 2.4054711
1.308576 0.85124099 2.4360859
1.312125 0.85027999 2.427654
1.2464449 0.87131101 2.4644811
1.261595 0.86456501 2.486861
1.274518 0.88117599 2.465066
1.287738 0.86770499 2.479449
1.277052 0.87303501 2.4574921
1.286642 0.862638 2.4473331
1.2972029 0.853957 2.465229
1.302904 0.85354 2.457505
1.307891 0.854397 2.4468541
1.261241 0.85935801 2.5213759
1.266346 0.86004299 2.5160339
1.281523 0.86925799 2.4928899
1.2789609 0.85760301 2.50141
1.284471 0.85735899 2.4939849
1.290056 0.85845602 2.485373
1.296252 0.86025602 2.4761529
1.041169 0.779217 2.258755
1.046368 0.77861798 2.257158
1.0477099 0.77946597 2.2673709
1.059263 0.79214901 2.2473581
1.079397 0.79874903 2.2530551
1.100425 0.791228 2.2754171
1.061656 0.81693798 2.234437
1.058796 0.77810901 2.263974
1.074602 0.794361 2.2447131
1.086763 0.80497199 2.234158
1.089691 0.78182399 2.250123
1.085012 0.78234702 2.2359791
1.0698299 0.78076202 2.2701621
1.0766259 0.78150898 2.263613
1.087569 0.79808801 2.242811
1.089372 0.79417002 2.234879
1.099979 0.78106397 2.2392061
1.1209739 0.79367101 2.2696819
1.074904 0.78055799 2.271096
1.077715 0.77984297 2.2680171
1.088433 0.78134 2.2621479
1.098951 0.79558098 2.2440109
1.097573 0.79574502 2.2349131
1.107064 0.78051698 2.238127
1.1575789 0.80654001 2.2736299
1.094296 0.78280503 2.263258
1.101964 0.782372 2.2597711
1.107834 0.78533399 2.251873
1.11569 0.79928797 2.2335219
1.120832 0.78190202 2.2373331
1.125322 0.78653902 2.231755
1.109481 0.78463799 2.261559
1.11508 0.784401 2.2574091
1.115168 0.79748303 2.244837
1.129637 0.78488898 2.2421701
1.141513 0.789689 2.2409451
1.125188 0.78658497 2.2637279
1.126779 0.81053102 2.237406
1.130336 0.81264198 2.23279
1.136947 0.78836399 2.2415791
1.147137 0.79128301 2.2369399
1.129907 0.78619403 2.26689
1.137747 0.78884101 2.2613111
1.1444989 0.82520199 2.2502191
1.15026 0.78834802 2.24681
1.2039779 0.81371999 2.2700009
1.1416841 0.789024 2.27437
1.144853 0.791394 2.268856
1.151674 0.79215401 2.259917
1.158353 0.79059601 2.2524779
1.161523 0.79158002 2.24681
1.154212 0.790712 2.2742119
1.159261 0.79233497 2.266222
1.164688 0.79277003 2.2601931
1.172175 0.79342097 2.2522759
1.161023 0.793423 2.2802379
1.166628 0.79525799 2.2731521
1.181268 0.81560302 2.2811649
1.178512 0.793625 2.2579379
1.168659 0.79459602 2.286514
1.175036 0.79615402 2.2791269
1.191376 0.81818497 2.2857931
1.186312 0.79567301 2.262022
1.178619 0.79706502 2.291811
1.183181 0.79842103 2.2849939
1.187907 0.79747701 2.277642
1.202522 0.80540901 2.283196
1.198732 0.801139 2.2658629
1.187052 0.79994202 2.298322
1.190032 0.798765 2.2906599
1.2142349 0.82337898 2.284323
1.218668 0.83091497 2.2813511
1.2057329 0.80283701 2.2692859
1.1933711 0.80065501 2.3022029
1.206971 0.81698698 2.309222
1.202978 0.80113 2.290179
1.222985 0.81129301 2.286613
1.2131701 0.80416799 2.275389
1.199752 0.80329698 2.307251
1.2063119 0.80408698 2.3033111
1.2239929 0.82398599 2.295541
1.2221349 0.812796 2.282191
1.224034 0.80609101 2.2840409
1.209617 0.805179 2.315712
1.21482 0.806288 2.310034
1.2313811 0.82209897 2.2978599
1.225244 0.80801499 2.292685
1.22693 0.80469501 2.287498
1.21973 0.807594 2.3234129
1.220372 0.80579603 2.3133619
1.221209 0.81387502 2.298826
1.230232 0.81095397 2.2900989
1.235576 0.81010997 2.2929189
1.222133 0.80865502 2.3255761
1.227996 0.810103 2.3208661
1.246401 0.83084202 2.3026381
1.2402821 0.80994701 2.305263
1.244705 0.81212002 2.3004291
1.231616 0.81070501 2.3338959
1.2369291 0.81216198 2.327209
1.244848 0.81923199 2.3296969
1.248053 0.81302202 2.311059
1.079527 0.814619 2.2113881
1.240104 0.81346101 2.3409891
1.24528 0.81571102 2.333807
1.258131 0.83473903 2.311641
1.256014 0.81459701 2.3161359
1.25962 0.81674403 2.311975
1.247647 0.83932799 2.3120749
1.252606 0.815943 2.339072
1.263497 0.82563901 2.3376911
1.263114 0.81637299 2.322597
1.252314 0.81795502 2.351882
1.25837 0.81923801 2.344815
1.27352 0.83858401 2.316699
1.270494 0.81895298 2.3305459
1.285583 0.84706199 2.342499
1.259475 0.81765002 2.3666141
1.252214 0.83330703 2.331357
1.267079 0.82537502 2.346405
1.271521 0.81988299 2.3444619
1.278072 0.82011998 2.3376989
1.27865 0.85023999 2.3469019
1.2740999 0.82270902 2.357451
1.28254 0.83380198 2.337496
1.286707 0.82464701 2.3421681
1.284795 0.86465001 2.3951111
1.2758549 0.82394999 2.3714409
1.275802 0.82936502 2.353719
1.288307 0.82558697 2.3568709
1.291615 0.827636 2.351104
1.2780271 0.82745802 2.384361
1.2883511 0.84238702 2.3668749
1.289675 0.82599503 2.3709049
1.2955559 0.82626498 2.3615961
1.298301 0.83012199 2.3564091
1.289971 0.85565698 2.399653
1.289198 0.850802 2.3699739
1.289499 0.83669001 2.370074
1.297246 0.82796699 2.375371
1.3024009 0.83106399 2.369328
1.284119 0.83135402 2.415246
1.29316 0.84609598 2.386049
1.293282 0.831734 2.3974609
1.300059 0.83145201 2.3898849
1.304242 0.83123797 2.3816681
1.306628 0.83426601 2.3759961
1.280221 0.83167601 2.4371481
1.281503 0.84743601 2.398726
1.288946 0.83375102 2.4202809
1.293306 0.83322299 2.4124711
1.299063 0.83529198 2.404752
1.306543 0.83394599 2.396148
1.309587 0.83542401 2.385386
1.269112 0.83693397 2.465059
1.273602 0.83529502 2.4578869
1.283084 0.867998 2.4501629
1.26961 0.84691203 2.4109509
1.289632 0.83625698 2.432955
1.294982 0.83663601 2.4255421
1.3010401 0.83544898 2.41785
1.308377 0.83514899 2.410974
1.310636 0.835141 2.400316
1.252141 0.83995998 2.5005021
1.2553591 0.842641 2.495152
1.268065 0.86259902 2.4464009
1.276178 0.85776597 2.4561789
1.272382 0.83998197 2.471132
1.285897 0.85305798 2.4547329
1.28425 0.83965898 2.4538529
1.290835 0.83959502 2.445426
1.295972 0.851273 2.41868
1.292385 0.84947097 2.405364
1.307109 0.83573198 2.4249461
1.310954 0.83871001 2.4154241
1.256997 0.86021298 2.4719119
1.2477829 0.84951597 2.481647
1.273872 0.86031502 2.4848199
1.271998 0.84316099 2.4834249
1.2826819 0.869744 2.436981
1.287577 0.86263502 2.4339581
1.291133 0.84296298 2.459796
1.29864 0.850012 2.4308529
1.3035131 0.842691 2.4448991
1.307676 0.84085298 2.4373169
1.257259 0.84944201 2.522016
1.26367 0.84879798 2.5145111
1.273024 0.86460102 2.502362
1.277496 0.86671603 2.4957399
1.279748 0.84589797 2.489989
1.286144 0.84585702 2.48173
1.292033 0.844643 2.4742539
1.296863 0.84315801 2.465492
1.263136 0.84911698 2.5237429
1.26827 0.84921402 2.516293
1.273311 0.850348 2.5111859
1.279183 0.850604 2.5006249
1.284794 0.850254 2.492424
1.0481991 0.77046698 2.266438
1.0932209 0.79018903 2.3000569
1.060902 0.77053201 2.254092
1.05417 0.76935101 2.27336
1.064062 0.78579903 2.2508299
1.081104 0.773646 2.2706561
1.072971 0.77109599 2.252466
1.178519 0.800152 2.2830551
1.065551 0.76979899 2.2806029
1.065235 0.78873801 2.2593629
1.0740139 0.77071601 2.2647669
1.081354 0.770621 2.2579861
1.0867161 0.77178699 2.247261
1.109908 0.786879 2.2445819
1.070377 0.771299 2.283216
1.076926 0.77328098 2.274914
1.082691 0.77344501 2.2706809
1.108755 0.809264 2.249913
1.09601 0.82659799 2.212847
1.102252 0.770827 2.2470591
1.170886 0.80376101 2.3190091
1.0936919 0.77073699 2.2744851
1.0969011 0.77443099 2.2687981
1.117344 0.78774399 2.2647481
1.099822 0.79052401 2.2466991
1.130024 0.77829498 2.2526569
1.11825 0.77565098 2.239826
1.1038589 0.77293801 2.2731659
1.118799 0.79854 2.2476239
1.132903 0.79092801 2.2567229
1.117887 0.80528098 2.233254
1.129051 0.77653402 2.244797
1.135946 0.780191 2.2421131
1.120128 0.77686799 2.2729211
1.125175 0.77724898 2.266047
1.130538 0.77808201 2.2572579
1.142972 0.780698 2.2513859
1.144714 0.78153998 2.2462399
1.1463521 0.80107599 2.254307
1.138967 0.78013599 2.264868
1.145322 0.77873999 2.256151
1.131192 0.78275901 2.25262
1.135523 0.77837199 2.2807779
1.139962 0.78051299 2.277776
1.155759 0.801153 2.2835541
1.152651 0.780047 2.2623429
1.159439 0.78097302 2.2565589
1.149704 0.78301501 2.283618
1.159034 0.80865401 2.26899
1.1436729 0.80589002 2.258172
1.177374 0.78882402 2.2692349
1.158152 0.78422701 2.287652
1.162745 0.78449899 2.282258
1.193889 0.820382 2.2811611
1.17419 0.78395098 2.266921
1.167186 0.845568 2.2302599
1.163015 0.78542298 2.2929471
1.166261 0.80565798 2.268549
1.1946011 0.82089698 2.2849591
1.181594 0.786264 2.271853
1.186816 0.78856498 2.2669311
1.173828 0.78706098 2.30089
1.177084 0.78776801 2.2935741
1.184626 0.78805399 2.2861979
1.19091 0.78773898 2.278522
1.1955481 0.790681 2.274256
1.180647 0.787974 2.305654
1.176356 0.81004602 2.280185
1.196112 0.82793999 2.3134151
1.2020431 0.79756099 2.2811971
1.188082 0.791022 2.3114021
1.1775 0.812123 2.289917
1.198609 0.79210502 2.298924
1.205626 0.79198098 2.2897539
1.2096649 0.79437101 2.2855
1.196014 0.7931 2.3174579
1.21237 0.80732602 2.3144281
1.206799 0.79591399 2.3052471
1.213963 0.793751 2.2956109
1.21702 0.79571599 2.291152
1.202419 0.79482698 2.3222711
1.189901 0.81758702 2.301033
1.209782 0.80282599 2.298337
1.224236 0.800776 2.305454
1.22365 0.797221 2.296212
1.2141 0.799272 2.3313739
1.215533 0.797719 2.3244891
1.22258 0.79923099 2.3163321
1.228523 0.79759699 2.30898
1.233122 0.79988497 2.3034921
1.242928 0.83607 2.32605
1.235019 0.81532902 2.3403599
1.234125 0.801853 2.3113599
1.2430691 0.80343598 2.3104219
1.226302 0.80154198 2.340816
1.2439851 0.82889199 2.3380029
1.235904 0.80382001 2.3284249
1.2450711 0.80291098 2.3222079
1.246153 0.80337697 2.3140781
1.236742 0.80560702 2.3490551
1.239724 0.804039 2.34233
1.251346 0.81303102 2.3353319
1.251197 0.80306602 2.32816
1.2549469 0.80737901 2.32148
1.24338 0.80636799 2.354593
1.257367 0.82913297 2.346663
1.254078 0.80610299 2.343061
1.248683 0.81000501 2.3229649
1.261345 0.80846399 2.3257661
1.249532 0.80896097 2.3595951
1.254402 0.80913502 2.354336
1.258543 0.80912101 2.3472021
1.265583 0.808631 2.34006
1.257419 0.81143302 2.3679149
1.268911 0.82623398 2.357353
1.266905 0.810247 2.3541069
1.274069 0.81016999 2.346175
1.274156 0.80989599 2.3391199
1.265509 0.81298202 2.375232
1.269745 0.81361997 2.3670781
1.275984 0.81159002 2.3595381
1.28769 0.828192 2.3634629
1.26407 0.81154299 2.3855529
1.270838 0.81497198 2.380882
1.278404 0.82779402 2.358634
1.283335 0.81501901 2.3649919
1.286572 0.81474698 2.3549709
1.280596 0.83501399 2.3953781
1.284525 0.83366603 2.3733749
1.285014 0.83289897 2.3878651
1.291669 0.81700999 2.3714199
1.292201 0.81942701 2.3641651
1.2867351 0.841919 2.380476
1.281311 0.82081097 2.4016891
1.286551 0.819619 2.3931539
1.291502 0.820126 2.383677
1.296186 0.820149 2.3789771
1.298895 0.821329 2.370975
1.271479 0.85175502 2.364543
1.282017 0.82226199 2.4155669
1.285989 0.83420497 2.3859179
1.293547 0.82301998 2.3989639
1.3027509 0.83033699 2.380846
1.305419 0.82574201 2.3866689
1.264668 0.83653301 2.4079981
1.2825201 0.82463998 2.4299049
1.289385 0.82397699 2.4216919
1.294278 0.84408498 2.387763
1.296277 0.82787502 2.3930669
1.304312 0.82637602 2.3958449
1.262072 0.82760698 2.4734991
1.275133 0.85503 2.4636731
1.2729959 0.82851797 2.459131
1.2797149 0.84275299 2.4486079
1.284443 0.82692701 2.441932
1.2909451 0.847022 2.4084051
1.288782 0.84222901 2.4053869
1.2787941 0.83028001 2.3991799
1.306129 0.82763898 2.410006
1.246103 0.82926798 2.510515
1.25096 0.83334202 2.5044789
1.263509 0.84737003 2.4654601
1.261685 0.83195001 2.4869781
1.274828 0.84349102 2.461988
1.271888 0.832353 2.473166
1.277168 0.84493202 2.438226
1.2911119 0.841784 2.4439809
1.291252 0.85791397 2.3969481
1.268288 0.85241199 2.4151101
1.302711 0.82861698 2.4329929
1.248713 0.84078699 2.523581
1.2498209 0.835594 2.513392
1.258334 0.84583199 2.4830489
1.2485909 0.84443903 2.477113
1.270486 0.85572302 2.4657819
1.281417 0.87067503 2.4841361
1.285019 0.846901 2.4721761
1.27597 0.83668399 2.4492531
1.28769 0.83928603 2.438648
1.296114 0.830248 2.4547229
1.2578861 0.84043199 2.5205641
1.281867 0.861368 2.4848981
1.261336 0.85355598 2.475343
1.2781661 0.845761 2.4939201
1.2806571 0.83660501 2.489821
1.285611 0.83624899 2.4823329
1.263153 0.84209102 2.524194
1.051495 0.76194602 2.2700369
1.056044 0.76180202 2.2629039
1.057445 0.76144099 2.275758
1.06468 0.76246202 2.2665739
1.103874 0.79959899 2.2504671
1.076135 0.76279497 2.254791
1.062765 0.76062697 2.279901
1.069994 0.76223999 2.272979
1.080857 0.79255801 2.244298
1.095474 0.76640302 2.2618439
1.08822 0.76400697 2.25246
1.07573 0.77402502 2.2734101
1.084639 0.77688003 2.261153
1.092671 0.76368999 2.2657859
1.1016051 0.76416701 2.257448
1.104089 0.76679498 2.248991
1.086139 0.76399499 2.2827201
1.115456 0.78978699 2.2895761
1.103326 0.77816802 2.260354
1.089972 0.80894798 2.2371891
1.12846 0.77241498 2.2766049
1.116711 0.766348 2.2492311
1.098516 0.76533598 2.281188
1.1061161 0.76693499 2.2751751
1.111683 0.76654398 2.2701149
1.118546 0.76755399 2.2618151
1.1391211 0.77394402 2.2627499
1.112891 0.76573098 2.281765
1.121948 0.76796401 2.275197
1.118322 0.78329599 2.2594211
1.122237 0.78801602 2.2490821
1.161478 0.79514599 2.2579379
1.128932 0.77063298 2.2812929
1.143615 0.78998297 2.2880471
1.128814 0.78932899 2.2555821
1.145357 0.76946098 2.2601299
1.136692 0.77245301 2.2854381
1.144773 0.79363298 2.25722
1.160943 0.78345799 2.275054
1.144559 0.77381903 2.262748
1.1605541 0.77530098 2.259217
1.145424 0.772618 2.2896869
1.149321 0.77330601 2.284271
1.155529 0.77241302 2.278306
1.161485 0.77194798 2.2696021
1.16835 0.77767003 2.2651811
1.158015 0.77442902 2.291986
1.164132 0.77586102 2.2849259
1.170154 0.77481502 2.2766099
1.197505 0.79269803 2.287601
1.166183 0.77704298 2.2977331
1.1882989 0.80833501 2.2975409
1.175526 0.77921402 2.2824149
1.182928 0.77881199 2.27668
1.165516 0.77542698 2.3079181
1.173618 0.77798998 2.3038559
1.20793 0.81841201 2.295614
1.184007 0.77804703 2.2877369
1.187121 0.78824902 2.2777359
1.177354 0.77840602 2.315268
1.181062 0.78006399 2.3084869
1.185899 0.78223598 2.30036
1.193891 0.78177202 2.295419
1.197741 0.782444 2.2880161
1.188213 0.78153098 2.3230939
1.188715 0.78140497 2.3150499
1.2040009 0.80733401 2.29913
1.2001359 0.78219301 2.300139
1.227955 0.80939502 2.3428991
1.196788 0.78492498 2.3215301
1.2165281 0.80707198 2.308042
1.208882 0.78500599 2.306812
1.21183 0.78588402 2.3003011
1.217651 0.80510902 2.3194361
1.209669 0.78815299 2.320302
1.216318 0.78788602 2.3133321
1.2207561 0.78799897 2.306102
1.210359 0.78780401 2.3339779
1.228668 0.80867398 2.316566
1.22325 0.78824103 2.3189919
1.228011 0.78931701 2.3127699
1.215744 0.78861398 2.347192
1.219053 0.790043 2.340657
1.22523 0.79113001 2.3319659
1.22989 0.79125297 2.3236461
1.236567 0.790649 2.320116
1.231582 0.809183 2.3247061
1.240117 0.80996001 2.3268559
1.239894 0.79425001 2.331403
1.243047 0.79294801 2.324167
1.228513 0.79267299 2.3563271
1.233821 0.79396802 2.3523381
1.240521 0.79640102 2.344543
1.2461261 0.79327703 2.336195
1.251176 0.79519701 2.332067
1.239534 0.79672301 2.3657689
1.2324769 0.80871201 2.336334
1.253052 0.810251 2.339978
1.253858 0.79624599 2.3419189
1.258811 0.79822499 2.338604
1.247901 0.79713798 2.3718591
1.250111 0.79831302 2.363235
1.2537529 0.79944497 2.354213
1.2656029 0.81153101 2.3377471
1.26498 0.80081898 2.343349
1.25063 0.80012 2.3756621
1.270436 0.82982701 2.363364
1.264936 0.81419998 2.34793
1.252519 0.80272597 2.3428581
1.2722189 0.80307198 2.3496671
1.268899 0.83204597 2.393316
1.264464 0.80340201 2.376636
1.262669 0.81006801 2.3510661
1.273932 0.803047 2.360347
1.262615 0.80415303 2.3972621
1.267143 0.80539697 2.391006
1.279922 0.82368499 2.3726001
1.278868 0.81622797 2.3853979
1.2840641 0.80634099 2.368962
1.268936 0.80733597 2.405561
1.275631 0.80831999 2.397157
1.279934 0.80969799 2.389555
1.2868561 0.80727702 2.3831379
1.289942 0.81121701 2.3751299
1.271142 0.810853 2.4171779
1.274299 0.81151301 2.4089329
1.289152 0.83152097 2.383626
1.279448 0.84059799 2.3460469
1.291335 0.81069601 2.387563
1.269774 0.810866 2.4395101
1.272477 0.81224602 2.4341409
1.276198 0.81309199 2.4240899
1.283442 0.81217903 2.4163949
1.284626 0.83627701 2.3768041
1.294238 0.81147999 2.400034
1.2974221 0.81443 2.3940499
1.2614 0.815126 2.46293
1.267934 0.81591201 2.4549489
1.273746 0.81961203 2.446605
1.276336 0.81523299 2.438349
1.284314 0.81593299 2.4311221
1.269364 0.82622302 2.4015219
1.295571 0.81405097 2.415112
1.3004071 0.81651002 2.4059401
1.256624 0.81816798 2.482691
1.2628241 0.819296 2.476228
1.267482 0.81827402 2.4676061
1.273103 0.81847799 2.4587741
1.278857 0.81857598 2.451309
1.289408 0.83895499 2.4110861
1.293968 0.83433801 2.421093
1.297392 0.818385 2.4291739
1.299996 0.81897402 2.4226601
1.250335 0.82510602 2.503526
1.257333 0.82462001 2.4965689
1.2625721 0.82344103 2.4892759
1.276107 0.83615702 2.4751091
1.276516 0.84969902 2.4431419
1.2809989 0.82042301 2.466377
1.288762 0.83988798 2.422832
1.294392 0.82088703 2.4492791
1.29684 0.82112199 2.441736
1.3003941 0.82174897 2.434983
1.253711 0.82164198 2.517015
1.2583899 0.823946 2.510535
1.265572 0.830378 2.5001559
1.267856 0.83557802 2.473588
1.2774301 0.83180797 2.4872561
1.256109 0.83422601 2.4263699
1.285574 0.82299697 2.4719651
1.290385 0.82213998 2.4626379
1.257663 0.82715499 2.5183489
1.266162 0.82986802 2.5124481
1.269382 0.82498801 2.506458
1.274001 0.827425 2.500268
1.281155 0.82784498 2.4895811
1.052905 0.75403303 2.2702229
1.049608 0.75448197 2.2794139
1.060204 0.74984801 2.2762041
1.063573 0.75116497 2.272553
1.07052 0.753142 2.263787
1.055182 0.83280402 2.2267151
1.06629 0.75342399 2.283077
1.072613 0.76691097 2.266402
1.078053 0.75299001 2.266938
1.084934 0.75362402 2.263988
1.067021 0.75322002 2.295495
1.0727251 0.75482303 2.2884481
1.080009 0.75424999 2.280906
1.076833 0.79863101 2.2470689
1.093051 0.75208497 2.2662721
1.100428 0.756926 2.2586329
1.079356 0.75350302 2.29269
1.0869941 0.75507402 2.286175
1.0917979 0.756464 2.2802711
1.097634 0.77417201 2.260263
1.105903 0.75583798 2.2635951
1.110255 0.75682497 2.258652
1.093714 0.75369602 2.290611
1.1015559 0.75817603 2.284831
1.11787 0.76858997 2.2809911
1.097515 0.79165399 2.2514069
1.120343 0.75840902 2.2609019
1.109993 0.75686097 2.290956
1.115659 0.75917798 2.2841101
1.125682 0.78459197 2.2673781
1.127228 0.759534 2.268317
1.133768 0.759821 2.2637479
1.1232001 0.76137799 2.288985
1.1297359 0.76095498 2.284251
1.135142 0.75922102 2.275053
1.1443501 0.769391 2.2682331
1.145519 0.76463097 2.26385
1.132075 0.76247603 2.2932479
1.135874 0.76228201 2.2872369
1.1584539 0.79825997 2.283987
1.150829 0.76276201 2.273339
1.155497 0.76657999 2.267947
1.144729 0.76341897 2.2940271
1.15739 0.77253199 2.2832041
1.174574 0.80374402 2.310389
1.1597821 0.76598501 2.271626
1.152974 0.76655602 2.3003991
1.166227 0.82452297 2.2722521
1.180672 0.791848 2.288558
1.169928 0.76803899 2.278604
1.1597 0.767582 2.3046091
1.166853 0.76936799 2.3004489
1.170781 0.76947898 2.292305
1.181002 0.78123999 2.280452
1.167703 0.770316 2.3120699
1.163783 0.80693901 2.2727039
1.183872 0.79345298 2.3069661
1.184948 0.77012902 2.290144
1.175989 0.771626 2.3177471
1.179757 0.77157903 2.310699
1.187263 0.773166 2.304898
1.191918 0.77492201 2.2923391
1.184321 0.77321398 2.3240941
1.179612 0.79267198 2.3002141
1.194747 0.77500701 2.310477
1.200431 0.77400702 2.3020229
1.192427 0.776438 2.3315661
1.197248 0.77773899 2.3240559
1.201797 0.77665198 2.3161759
1.2145621 0.78411698 2.3219011
1.210634 0.77779901 2.301909
1.200298 0.77617502 2.3362689
1.194458 0.792997 2.3202441
1.2151411 0.78855699 2.332406
1.216242 0.77685201 2.3144269
1.2232651 0.78164297 2.3110321
1.207512 0.78082103 2.342392
1.17892 0.82142699 2.303026
1.2175649 0.78115898 2.3284931
1.237283 0.79367697 2.31953
1.227722 0.78377998 2.315989
1.213432 0.78001302 2.348223
1.218119 0.78290302 2.340493
1.226384 0.782242 2.3344619
1.229975 0.78141898 2.3256459
1.2359329 0.78562897 2.3206789
1.222386 0.78428298 2.354198
1.2355109 0.80318898 2.3490751
1.241704 0.79530901 2.339864
1.238789 0.78458202 2.3324189
1.239308 0.78714001 2.32516
1.220345 0.80572599 2.3288281
1.2435811 0.80540198 2.3551409
1.24184 0.786713 2.3455131
1.242854 0.792862 2.3320589
1.237464 0.78849697 2.367851
1.2438591 0.78931099 2.360728
1.251388 0.79712999 2.3425319
1.255541 0.79024899 2.3457339
1.242653 0.78687799 2.3812051
1.222669 0.80138701 2.35532
1.266073 0.831972 2.362386
1.256403 0.79013097 2.358717
1.2599061 0.79012501 2.353447
1.249764 0.79319 2.386122
1.251503 0.79200602 2.3800981
1.251199 0.81169897 2.3410981
1.265395 0.79314202 2.364583
1.2689281 0.79442 2.358314
1.276475 0.84788001 2.3824799
1.259971 0.795057 2.385874
1.271528 0.80599499 2.3798771
1.270753 0.79326499 2.3698201
1.261451 0.79619998 2.3996689
1.267602 0.79636902 2.3923199
1.27213 0.796 2.3856881
1.258764 0.79766101 2.364248
1.2778291 0.829925 2.379885
1.269665 0.79914403 2.4062941
1.286036 0.82709903 2.3800421
1.278098 0.82055998 2.3601561
1.28425 0.79958397 2.3843119
1.267422 0.79995698 2.4248879
1.268487 0.81869203 2.3918741
1.276418 0.80111003 2.4117329
1.275804 0.81017101 2.3789721
1.288058 0.80016601 2.397676
1.260654 0.80229503 2.4547751
1.2520109 0.81864101 2.4015551
1.271428 0.80390698 2.4334249
1.278594 0.80201697 2.4269221
1.268496 0.81983399 2.387382
1.289591 0.80266899 2.4108109
1.293277 0.80609298 2.4014609
1.257162 0.80910099 2.4720099
1.279096 0.85158497 2.4553101
1.2728339 0.82879901 2.4517331
1.273441 0.80562401 2.4479539
1.279646 0.80674702 2.439635
1.293978 0.83490902 2.4020679
1.2914129 0.80408603 2.4240999
1.295483 0.80672801 2.4169581
1.289049 0.90289003 2.338587
1.257363 0.81009501 2.484715
1.272552 0.82682103 2.456929
1.266603 0.81033498 2.469362
1.284694 0.85774201 2.417896
1.283249 0.81644398 2.4421239
1.293403 0.824453 2.4290409
1.29255 0.80878502 2.4367909
1.247297 0.81355798 2.516964
1.25454 0.81133598 2.5069139
1.25919 0.81399 2.497134
1.267072 0.82970399 2.4948549
1.2700011 0.81370699 2.483237
1.264299 0.81571198 2.4522901
1.276657 0.81982601 2.444087
1.287885 0.81059098 2.4588029
1.290249 0.80946702 2.4522381
1.29397 0.81015003 2.4446609
1.3097579 0.896887 2.4308231
1.259598 0.816728 2.513133
1.255952 0.84623897 2.4566
1.269508 0.81426603 2.4946339
1.275852 0.81261802 2.4869339
1.284559 0.85126698 2.4789209
1.286411 0.814192 2.470485
1.261307 0.81653202 2.518724
1.267086 0.82097602 2.5084341
1.056587 0.740619 2.3007021
1.060618 0.74116898 2.295526
1.066658 0.74228299 2.2842529
1.090518 0.74992198 2.2852709
1.08007 0.743402 2.2714829
1.063453 0.74328202 2.30495
1.105522 0.77551901 2.301846
1.09552 0.79299301 2.282974
1.077372 0.76089299 2.2708981
1.0853651 0.74386901 2.275826
1.123969 0.76110297 2.279686
1.073869 0.74452901 2.3024459
1.081548 0.74552703 2.2964671
1.085736 0.757972 2.2822471
1.089555 0.76641101 2.2711661
1.10111 0.745417 2.273267
1.114015 0.75412399 2.2682459
1.087823 0.74483699 2.2993629
1.096108 0.74620003 2.2951779
1.107802 0.77065802 2.287683
1.100135 0.77578199 2.264143
1.130434 0.75665098 2.2891941
1.121594 0.750144 2.268569
1.101468 0.74589503 2.299109
1.11033 0.75003499 2.294287
1.121534 0.77830601 2.2794919
1.1366661 0.778135 2.2982919
1.143187 0.76186299 2.2779601
1.122774 0.75198197 2.297914
1.1396641 0.77745003 2.276931
1.129777 0.75154001 2.2846031
1.137303 0.75202101 2.27665
1.144384 0.754484 2.273134
1.127647 0.74989402 2.305737
1.131242 0.75233501 2.296936
1.144645 0.752765 2.2825141
1.1485471 0.75338101 2.2769401
1.140143 0.753995 2.3028741
1.1618299 0.79518801 2.296838
1.151177 0.75660002 2.2894001
1.156348 0.75584698 2.282053
1.148187 0.757276 2.308928
1.1535881 0.757662 2.3028269
1.159664 0.75789899 2.2963779
1.166464 0.75783902 2.287848
1.157124 0.75707 2.316129
1.162232 0.75919098 2.3092549
1.182045 0.78289402 2.3025169
1.17397 0.75895298 2.292454
1.164167 0.75949901 2.3193879
1.169111 0.798253 2.274051
1.173861 0.76734501 2.3006699
1.190225 0.768233 2.299922
1.181633 0.761886 2.292383
1.1694371 0.76229399 2.3253181
1.175697 0.76346898 2.318851
1.192832 0.78191 2.3128209
1.190107 0.762775 2.306165
1.193395 0.765086 2.2998569
1.180971 0.76363999 2.3328071
1.1962759 0.78190702 2.318769
1.196173 0.77609003 2.316613
1.193472 0.78084499 2.2848971
1.198584 0.76567799 2.3057239
1.190612 0.76605898 2.339313
1.191609 0.76753998 2.333298
1.200958 0.77539998 2.334707
1.203128 0.76604801 2.3167019
1.207365 0.76816601 2.312079
1.195932 0.76839799 2.3442409
1.198048 0.77029198 2.338758
1.213696 0.78173298 2.3249459
1.222855 0.78357202 2.3472979
1.21552 0.77111 2.3182211
1.201426 0.769122 2.3477099
1.2152179 0.79624802 2.3183031
1.218864 0.77868801 2.3384919
1.21681 0.76993001 2.3283241
1.224744 0.77225101 2.3252089
1.210425 0.77234298 2.3554029
1.214222 0.77429199 2.3521681
1.226943 0.78549701 2.334291
1.227357 0.77223903 2.3342121
1.220237 0.775141 2.3636889
1.222299 0.77367502 2.3566279
1.231725 0.78635699 2.3399889
1.248639 0.79248399 2.336966
1.2374001 0.77611297 2.335304
1.223363 0.77689302 2.366374
1.230346 0.77809602 2.3631539
1.2383569 0.78381598 2.3511989
1.2411669 0.77671099 2.346796
1.248261 0.77867198 2.3450539
1.233467 0.77918297 2.3749311
1.239211 0.77960402 2.369586
1.246671 0.793679 2.348067
1.249144 0.77915698 2.3539939
1.2409559 0.78220999 2.3828931
1.243759 0.78081697 2.3746541
1.244866 0.78880602 2.3537591
1.25279 0.78715003 2.3504541
1.248346 0.78305501 2.3878939
1.263944 0.80808002 2.3796301
1.259014 0.78309703 2.374871
1.26423 0.78340101 2.3688619
1.250742 0.78344601 2.401
1.255103 0.78496897 2.395669
1.270985 0.81211901 2.380733
1.267295 0.78450203 2.379607
1.270574 0.78738701 2.37304
1.265695 0.80619502 2.389869
1.262859 0.78782302 2.4024
1.2751189 0.80250603 2.379554
1.27504 0.78780103 2.3870211
1.276058 0.78920299 2.378835
1.258477 0.82510602 2.359385
1.264098 0.79050797 2.416225
1.270004 0.78876001 2.4080341
1.276807 0.78966999 2.40028
1.281253 0.78986001 2.395046
1.25883 0.78949898 2.445894
1.237276 0.82220399 2.3642149
1.264841 0.79243499 2.428899
1.2797771 0.813703 2.4025331
1.273429 0.80894297 2.384191
1.283223 0.79092801 2.4069541
1.284139 0.79301798 2.398391
1.274259 0.82880503 2.451211
1.264806 0.79352099 2.444113
1.281476 0.80894202 2.420419
1.276508 0.79590398 2.42729
1.2844011 0.79367101 2.420274
1.288293 0.795847 2.4105041
1.278935 0.840653 2.430784
1.256945 0.79917002 2.4733219
1.267754 0.81383598 2.46052
1.2730891 0.818313 2.4326789
1.273914 0.79694599 2.4490969
1.283463 0.81247097 2.4228981
1.28613 0.79561001 2.4334791
1.289418 0.795591 2.4268601
1.252939 0.800843 2.493629
1.256237 0.80092299 2.485543
1.2613699 0.80004698 2.4778571
1.270228 0.79929298 2.4727981
1.276402 0.800318 2.4626131
1.281931 0.79889399 2.456003
1.287131 0.798383 2.4449899
1.28987 0.79900002 2.440408
1.2610821 0.83280301 2.4425271
1.25349 0.83519101 2.4422579
1.2651041 0.80280602 2.4927361
1.271843 0.827272 2.464869
1.2787091 0.83715898 2.423291
1.2816809 0.79988998 2.468071
1.284268 0.80171603 2.4610691
1.258459 0.80720401 2.513216
1.264055 0.80492502 2.5053799
1.2689871 0.80597001 2.4968419
1.2757 0.80649102 2.487577
1.278326 0.80449301 2.483443
1.063857 0.73177803 2.2956879
1.0707411 0.73309797 2.285408
1.073855 0.73555499 2.2820239
1.063782 0.73775899 2.307142
1.0699281 0.734191 2.300137
1.0742691 0.75142401 2.2807291
1.1242321 0.75559998 2.307029
1.108315 0.74671 2.285975
1.076722 0.73851198 2.304564
1.091077 0.769306 2.285249
1.097494 0.77063102 2.2941949
1.096693 0.73544401 2.282865
1.109939 0.74459702 2.2737629
1.0914381 0.73623002 2.3055699
1.096849 0.7392 2.297507
1.0951281 0.758973 2.2771289
1.108615 0.73765898 2.2797251
1.1741641 0.78382802 2.348176
1.104291 0.74023801 2.30141
1.128917 0.767847 2.2884929
1.116704 0.74054199 2.2876201
1.122748 0.74025899 2.281615
1.114392 0.73991698 2.3069561
1.119732 0.74205798 2.301651
1.152638 0.79992902 2.303885
1.13169 0.74198902 2.285522
1.165929 0.76338899 2.2981811
1.12718 0.74231499 2.306766
1.131254 0.74290198 2.2992971
1.1377079 0.74586099 2.2924261
1.14732 0.75044698 2.2849121
1.1352431 0.744519 2.312737
1.143126 0.76856703 2.2863441
1.1521651 0.76242203 2.3072679
1.152632 0.74547702 2.2904091
1.145558 0.74638301 2.3175399
1.148512 0.74778098 2.311166
1.170809 0.78304797 2.3143749
1.161222 0.74763799 2.295773
1.14893 0.74617398 2.3201599
1.15363 0.77648997 2.293004
1.161055 0.75542802 2.30548
1.168857 0.74953699 2.30145
1.171772 0.75253701 2.2963941
1.1611249 0.74794501 2.3320141
1.181149 0.77259701 2.313915
1.1696841 0.75097799 2.3164091
1.175604 0.75069499 2.309448
1.17743 0.748909 2.3032401
1.171753 0.75295299 2.3297081
1.175876 0.75376803 2.3226049
1.185338 0.75274998 2.315032
1.187218 0.75118101 2.3099141
1.174387 0.751863 2.3405089
1.179937 0.75556999 2.335398
1.189242 0.766065 2.3392811
1.19252 0.75440902 2.3204861
1.198464 0.75440401 2.317575
1.186951 0.75569302 2.349427
1.200086 0.78602499 2.311377
1.192741 0.75769299 2.3351769
1.198904 0.75634199 2.3262761
1.203554 0.75557798 2.321465
1.195003 0.75779599 2.348223
1.207249 0.76851201 2.341469
1.20855 0.758246 2.331661
1.212 0.758169 2.3271151
1.203117 0.760912 2.355329
1.208253 0.76049501 2.346786
1.214789 0.75936902 2.3383689
1.220873 0.759772 2.3350811
1.205493 0.75904202 2.3650329
1.173173 0.82123703 2.297219
1.214254 0.76351398 2.3528979
1.227464 0.77313501 2.3575599
1.226987 0.76389802 2.3388629
1.213131 0.76257801 2.370985
1.218032 0.76554102 2.3673251
1.22561 0.77252799 2.3529961
1.2307 0.76310098 2.351022
1.235333 0.76449198 2.3465459
1.221628 0.76682502 2.378113
1.241313 0.80615097 2.3720109
1.2315249 0.76813602 2.3665559
1.244944 0.77726603 2.3540969
1.243966 0.77178299 2.352773
1.225958 0.76559001 2.382381
1.22744 0.80842799 2.3647921
1.238977 0.768727 2.373446
1.244761 0.76653802 2.3626609
1.247867 0.76891899 2.3574419
1.234972 0.76941502 2.3911049
1.238863 0.77045798 2.3839951
1.244246 0.77196401 2.3771131
1.2529401 0.77106202 2.3695979
1.252766 0.77209401 2.3611331
1.256855 0.80068099 2.3959141
1.248147 0.77304202 2.390173
1.253601 0.77401 2.3839021
1.259783 0.77294499 2.3756959
1.260515 0.77544898 2.3684521
1.247776 0.77671403 2.410634
1.251134 0.77469599 2.404947
1.256883 0.79203701 2.375386
1.26085 0.77540803 2.391099
1.257126 0.781048 2.3684599
1.2545559 0.77903402 2.419028
1.267363 0.80071503 2.403662
1.262729 0.77931398 2.4032879
1.268225 0.77751702 2.395143
1.272926 0.778813 2.38919
1.253949 0.776788 2.4347689
1.258152 0.779769 2.4244039
1.2728291 0.80007499 2.405823
1.267362 0.79320699 2.3825481
1.277231 0.78039402 2.4035621
1.2581739 0.78142703 2.4488721
1.26038 0.784522 2.438684
1.267454 0.78199297 2.430289
1.271488 0.78191602 2.4217539
1.2788841 0.783517 2.41662
1.278865 0.78114599 2.4075861
1.2539819 0.78482902 2.466435
1.2567919 0.78373498 2.461401
1.26256 0.78548801 2.4536159
1.26823 0.78395402 2.4451489
1.278265 0.79987502 2.423367
1.258375 0.80504203 2.391587
1.283384 0.78391999 2.4214389
1.2467149 0.78651202 2.4912331
1.250668 0.78851902 2.483124
1.256349 0.78722298 2.474045
1.2635829 0.78962898 2.4665451
1.268478 0.78737497 2.4592521
1.27846 0.79795098 2.437094
1.293319 0.807576 2.429497
1.284857 0.78724003 2.43118
1.252412 0.79126698 2.4945359
1.2585289 0.79136503 2.4879251
1.265236 0.80525303 2.4823439
1.2756259 0.806117 2.4528191
1.279868 0.82638901 2.426456
1.281222 0.78836 2.4550359
1.284528 0.78932297 2.4486511
1.253366 0.79285002 2.508487
1.261732 0.80217201 2.4985831
1.25648 0.80948502 2.4764149
1.259716 0.80010402 2.4615779
1.275388 0.79499799 2.478148
1.278769 0.79364699 2.4694769
1.264869 0.79575402 2.5042
1.07125 0.72780102 2.291688
1.0717781 0.72744 2.3030641
1.075985 0.72833598 2.298326
1.0845439 0.72821802 2.2869551
1.090709 0.72943199 2.2822239
1.130121 0.77454901 2.30916
1.104152 0.772035 2.2931731
1.090408 0.72676498 2.2916999
1.113109 0.738051 2.289268
1.105363 0.73087198 2.281039
1.084839 0.72923303 2.3139
1.092227 0.72972703 2.3067451
1.132462 0.772466 2.310096
1.104224 0.72853303 2.2898109
1.1249599 0.74703401 2.282094
1.09905 0.73138899 2.3110631
1.106709 0.73112297 2.3049669
1.1320601 0.77851301 2.3149199
1.128872 0.73802 2.3012121
1.119432 0.73276299 2.281991
1.112835 0.73260099 2.310605
1.145515 0.77065003 2.3163481
1.126417 0.73262101 2.2967579
1.131994 0.73404801 2.2879169
1.123808 0.733504 2.315933
1.138401 0.75809002 2.320919
1.143761 0.76915902 2.3172331
1.1532249 0.74321997 2.302778
1.146275 0.73771203 2.2893071
1.128994 0.73314399 2.3194909
1.13474 0.73574603 2.3147571
1.153023 0.75800002 2.293448
1.147401 0.73402798 2.2999721
1.172906 0.777224 2.268533
1.142416 0.73743999 2.3210621
1.1484931 0.73767799 2.3134971
1.156659 0.73689997 2.3059371
1.160481 0.73918003 2.300946
1.14974 0.73971498 2.3265469
1.163094 0.75298101 2.3094201
1.164096 0.73948097 2.313705
1.184876 0.75939202 2.3347781
1.161041 0.74192202 2.332577
1.1664931 0.74311602 2.325079
1.186419 0.76204801 2.3128209
1.176245 0.74165601 2.3116779
1.165451 0.74299502 2.337224
1.168507 0.76034302 2.3150029
1.197493 0.77128798 2.3184121
1.1943949 0.75219101 2.319844
1.174849 0.74610901 2.3416121
1.179529 0.74527198 2.335556
1.185612 0.745956 2.330364
1.191846 0.74659699 2.320668
1.1836571 0.74774498 2.3490169
1.184077 0.75943601 2.33337
1.2081521 0.77319902 2.3225451
1.198088 0.75190502 2.3230131
1.1837831 0.79936302 2.289763
1.209442 0.77237099 2.335259
1.2017781 0.74969602 2.341939
1.209179 0.74967498 2.3365469
1.1969121 0.75052202 2.359592
1.189184 0.770374 2.3410549
1.208922 0.75281399 2.34903
1.215548 0.75276899 2.3391919
1.205451 0.75168699 2.367244
1.217259 0.76841199 2.3505361
1.215659 0.75426 2.3524859
1.2219729 0.75295502 2.3472619
1.190383 0.77575099 2.3508861
1.2187721 0.755844 2.366996
1.22443 0.75614703 2.360198
1.230258 0.754677 2.354964
1.222235 0.75658202 2.3817179
1.230852 0.77065802 2.3628359
1.231463 0.75661302 2.3677249
1.238019 0.75783402 2.3606491
1.224372 0.75597101 2.3935361
1.228266 0.76078397 2.3874879
1.235534 0.75963199 2.3811431
1.233412 0.766783 2.358624
1.2446719 0.75965202 2.3676901
1.233204 0.759238 2.404278
1.245156 0.782377 2.392447
1.243192 0.77413201 2.371047
1.257574 0.77710402 2.3794169
1.25018 0.762106 2.370352
1.24116 0.76537299 2.4063201
1.243158 0.76373798 2.401103
1.248311 0.76511002 2.392663
1.255583 0.76333201 2.385725
1.257979 0.79209501 2.3899269
1.259409 0.78999799 2.4025271
1.261312 0.777174 2.3908999
1.261389 0.76488203 2.3899591
1.246406 0.76510501 2.427345
1.2526571 0.78188002 2.3990381
1.258808 0.76892102 2.412827
1.264819 0.76709503 2.405545
1.268515 0.771272 2.398715
1.251563 0.76823097 2.441592
1.254135 0.77064002 2.433809
1.260124 0.77122301 2.427285
1.254994 0.77893698 2.3923731
1.272416 0.76952201 2.410974
1.2722009 0.77265 2.402483
1.253408 0.77111602 2.4556029
1.265118 0.79922497 2.4456699
1.237663 0.78464401 2.401139
1.276468 0.79724997 2.4147539
1.262799 0.79232103 2.399421
1.2768739 0.77351803 2.416867
1.260141 0.79873401 2.4655161
1.255883 0.77573502 2.4630041
1.270823 0.80134302 2.4280429
1.267763 0.77521998 2.447901
1.2823499 0.78994399 2.4341781
1.280298 0.776519 2.43206
1.241964 0.77673399 2.4981279
1.253623 0.80270803 2.4574299
1.258108 0.79054201 2.472703
1.258489 0.77916503 2.4761779
1.265697 0.80151403 2.439817
1.270216 0.77830702 2.460011
1.28844 0.81344402 2.4294169
1.2806799 0.77770799 2.4436841
1.247461 0.78246599 2.5066321
1.260229 0.804465 2.4681201
1.249917 0.790582 2.4686589
1.261719 0.79825801 2.4525549
1.272166 0.80177099 2.4764481
1.281988 0.83540702 2.4671719
1.2809761 0.78046697 2.4554639
1.260478 0.80636001 2.50383
1.260697 0.78338498 2.502454
1.279888 0.81781298 2.4844351
1.2712409 0.78546101 2.4851301
1.274117 0.781596 2.4808061
1.071826 0.71877998 2.3103099
1.071586 0.71634603 2.302403
1.080958 0.71800798 2.2970419
1.074819 0.71773899 2.3152609
1.0800509 0.71641302 2.310493
1.085513 0.718795 2.3029859
1.092934 0.71823001 2.2951369
1.083048 0.71857101 2.3195901
1.088361 0.719239 2.3153479
1.117731 0.77570599 2.309716
1.112008 0.72712803 2.3018651
1.10598 0.71974599 2.2940359
1.112466 0.72377098 2.289748
1.148068 0.773072 2.2989621
1.102212 0.72101998 2.313607
1.133799 0.75695199 2.3121741
1.116344 0.72627199 2.2958241
1.120261 0.72258502 2.293185
1.109165 0.72167897 2.3194261
1.115504 0.72393602 2.3133049
1.135744 0.76697397 2.3244679
1.1451941 0.73986697 2.3203061
1.119565 0.72465903 2.3237331
1.122943 0.72447002 2.3189609
1.148248 0.74763501 2.312604
1.15222 0.73623902 2.305985
1.13922 0.72509402 2.298506
1.13098 0.72725803 2.32269
1.1507961 0.75585902 2.304332
1.1572011 0.77358699 2.326669
1.148923 0.72855097 2.3034041
1.136873 0.727386 2.328474
1.158818 0.747298 2.314651
1.150818 0.72773802 2.315495
1.1578569 0.73810399 2.3031111
1.145834 0.72744697 2.33482
1.15233 0.73165601 2.328208
1.1558501 0.730358 2.3216169
1.164616 0.73112202 2.3123429
1.169526 0.73478699 2.3102069
1.156077 0.73143798 2.340512
1.160982 0.73419797 2.336092
1.180283 0.75828898 2.32183
1.184783 0.75031298 2.3428619
1.17485 0.73310298 2.314033
1.167289 0.73409402 2.348531
1.175475 0.75098801 2.3274801
1.173857 0.73436999 2.334012
1.181448 0.73572999 2.326241
1.184955 0.73496902 2.3202519
1.172398 0.73364002 2.353231
1.17467 0.73671699 2.344723
1.1805871 0.73610699 2.3403389
1.203297 0.75562 2.333163
1.1900361 0.73838401 2.3251851
1.178866 0.734694 2.358315
1.182888 0.73920798 2.3536489
1.188679 0.73869503 2.345691
1.208572 0.75590402 2.3385539
1.200121 0.74025297 2.331167
1.1903991 0.73823202 2.366478
1.192158 0.74152797 2.361398
1.197101 0.74023098 2.351867
1.2020299 0.73961902 2.343672
1.194088 0.76819801 2.306771
1.198433 0.74151599 2.365818
1.208771 0.75238299 2.3495059
1.2096 0.74227202 2.3483281
1.213514 0.74489802 2.343231
1.201911 0.74186599 2.3761699
1.2050101 0.74591398 2.371928
1.210881 0.74391001 2.3628719
1.218794 0.74594897 2.356581
1.22448 0.74757099 2.349859
1.211596 0.74538201 2.3837831
1.214355 0.746126 2.376055
1.2201231 0.746225 2.3703189
1.225723 0.74571198 2.360239
1.2749701 0.81528401 2.394753
1.2400711 0.78634501 2.387687
1.222752 0.74975902 2.383637
1.2208461 0.75609201 2.3631389
1.23444 0.74823803 2.3682971
1.235513 0.75058597 2.3596339
1.224892 0.74949503 2.3981481
1.240605 0.77831501 2.388375
1.234393 0.75033498 2.3817461
1.2404439 0.75063598 2.37412
1.246004 0.75422502 2.3704929
1.24131 0.770854 2.385205
1.244382 0.77885598 2.3938789
1.2593009 0.78440797 2.3918359
1.252421 0.76516199 2.3758471
1.248477 0.75477701 2.3723869
1.238452 0.75451702 2.410562
1.248281 0.76356798 2.3941641
1.251078 0.75349402 2.3938651
1.256242 0.75605398 2.3892739
1.248158 0.80877501 2.343055
1.245991 0.75573599 2.4164779
1.251292 0.75772601 2.4096589
1.2577291 0.755202 2.3993821
1.260614 0.75975603 2.3929369
1.246761 0.757173 2.43729
1.247835 0.75929397 2.4294851
1.254817 0.760171 2.4223559
1.247102 0.791448 2.3585551
1.263621 0.76081902 2.4061129
1.266083 0.76113302 2.397213
1.235082 0.78147298 2.4071641
1.255796 0.75997102 2.4370861
1.2568851 0.800183 2.3921781
1.268026 0.76061898 2.4212921
1.2715009 0.76244903 2.414392
1.249266 0.76445299 2.46506
1.262991 0.79547501 2.4544139
1.2695071 0.79426497 2.4271369
1.2642879 0.78054702 2.425046
1.274058 0.780182 2.431253
1.271822 0.76375902 2.426384
1.2364841 0.76435798 2.4926231
1.242596 0.76877302 2.4884801
1.257292 0.78898102 2.4617629
1.2494169 0.78405702 2.4553249
1.257203 0.76584798 2.462549
1.257989 0.77568799 2.42873
1.269704 0.76608199 2.448246
1.274681 0.76508898 2.441056
1.276125 0.84471202 2.3872421
1.2413321 0.78063703 2.4665589
1.240732 0.77987403 2.4613609
1.2651809 0.79300803 2.4568429
1.264563 0.79006398 2.453546
1.272089 0.76664102 2.4618969
1.274332 0.76696903 2.4538579
1.2782511 0.76893502 2.446722
1.248769 0.77191001 2.5017049
1.261274 0.78588498 2.494442
1.259871 0.77105403 2.491272
1.251943 0.78093302 2.461
1.270579 0.77253699 2.4741001
1.273998 0.77187502 2.4673941
1.256633 0.77003998 2.5054481
1.263957 0.77689099 2.496341
1.072731 0.70451802 2.3086989
1.0819089 0.71111 2.2991359
1.1267281 0.77225 2.330971
1.081898 0.707798 2.3121901
1.100323 0.71573597 2.311856
1.082436 0.71462601 2.3238311
1.097778 0.72015601 2.3143139
1.094857 0.72333199 2.300736
1.099506 0.70995498 2.301574
1.108593 0.71311498 2.298295
1.0930459 0.71212602 2.328615
1.096907 0.71350998 2.3225019
1.131439 0.76262301 2.3282199
1.108965 0.709957 2.3083911
1.114506 0.71260297 2.301343
1.105161 0.71268702 2.329231
1.132964 0.74189001 2.328043
1.12805 0.74187201 2.329047
1.122663 0.71285403 2.3073959
1.128846 0.71574903 2.302738
1.117743 0.71430999 2.327425
1.124651 0.716093 2.319875
1.143384 0.75677401 2.3270421
1.135739 0.714571 2.3067131
1.1264859 0.71680599 2.3327949
1.131675 0.71683598 2.3246329
1.136331 0.71798301 2.3190551
1.143018 0.71722502 2.3120749
1.14991 0.72159702 2.3073189
1.139318 0.71883303 2.3314331
1.145175 0.71912199 2.3254631
1.152775 0.71870899 2.317183
1.158217 0.71860802 2.315032
1.14773 0.72121102 2.339292
1.176666 0.76744801 2.318892
1.159205 0.72115201 2.322962
1.165306 0.72205299 2.3196139
1.172937 0.75626999 2.315774
1.177861 0.74603999 2.327899
1.168221 0.72352898 2.3287721
1.171476 0.72212499 2.3229029
1.163255 0.72528201 2.3486569
1.1651241 0.74704099 2.3180759
1.175264 0.725833 2.3362081
1.1809601 0.72589999 2.330523
1.170911 0.72455299 2.3546669
1.189347 0.749102 2.337806
1.1910729 0.74409002 2.3406439
1.186903 0.72604299 2.3355889
1.176525 0.76896602 2.3048091
1.178656 0.74699301 2.3359699
1.200904 0.73635399 2.3416951
1.188735 0.73022097 2.3678589
1.19186 0.73076999 2.3619781
1.201049 0.74956203 2.338975
1.2034529 0.73075402 2.3476219
1.195426 0.72984499 2.373764
1.186079 0.75924301 2.3416581
1.203702 0.73417401 2.360153
1.205531 0.74012601 2.3424261
1.172451 0.76244903 2.3460679
1.189388 0.75698698 2.355859
1.2137589 0.73530799 2.367358
1.217957 0.73465401 2.359056
1.210117 0.73593497 2.386167
1.215158 0.73586899 2.378865
1.20866 0.75583702 2.3457241
1.227291 0.736866 2.3675101
1.217178 0.73813999 2.392848
1.2128789 0.766738 2.3583331
1.227598 0.73859 2.3775761
