# .PCD v0.7 - Point Cloud Data file format
VERSION 0.7
FIELDS x y z
SIZE 4 4 4
TYPE F F F
COUNT 1 1 1
WIDTH 1639
HEIGHT 1
VIEWPOINT 0 0 0 1 0 0 0
POINTS 1639
DATA ascii
1.46053 0.41704601 2.388731
1.137177 0.42478701 2.389292
1.140368 0.42537099 2.381717
1.170081 0.42825499 2.3877039
1.182559 0.428276 2.386049
1.196119 0.42358401 2.3859119
1.2113349 0.42200601 2.384835
1.227337 0.423163 2.3824511
1.236829 0.42511901 2.3894219
1.241469 0.42346299 2.381608
1.25096 0.427228 2.3885331
1.265142 0.42559499 2.3857341
1.275377 0.42902499 2.386857
1.322649 0.42697999 2.3877161
1.357089 0.42060399 2.3824551
1.439208 0.42372 2.3875091
1.447278 0.42545551 2.3857939
1.4523081 0.42347699 2.3831661
1.1358465 0.43453652 2.384464
1.165122 0.43639851 2.3840752
1.186684 0.43813699 2.3872519
1.196619 0.43500149 2.3845906
1.205466 0.43137601 2.3899829
1.2110159 0.4357155 2.3831234
1.2236979 0.43191099 2.3867068
1.231831 0.43428901 2.388875
1.247988 0.43600899 2.38574
1.270354 0.43501201 2.3852179
1.2925709 0.43235299 2.389199
1.159273 0.44327599 2.3805361
1.166906 0.44570899 2.3869691
1.182807 0.44690999 2.3843491
1.1961811 0.449139 2.382571
1.205492 0.440772 2.388973
1.2321219 0.44331199 2.3852899
1.247027 0.44433299 2.383745
1.255971 0.44395301 2.3850698
1.332317 0.447568 2.38361
1.359125 0.44746301 2.3842199
1.382544 0.44592202 2.3858855
1.137773 0.45205301 2.3803649
1.1460786 0.45572901 2.3812919
1.179889 0.45875001 2.3806939
1.186101 0.45568565 2.3866017
1.208726 0.450968 2.3818259
1.215912 0.45206499 2.3864591
1.222463 0.450899 2.380127
1.230948 0.453677 2.384954
1.2770931 0.45894 2.389353
1.300638 0.450221 2.3825331
1.1314631 0.46903601 2.3820159
1.1438611 0.46226701 2.3830121
1.185774 0.46890199 2.3876679
1.202497 0.460821 2.385978
1.22832 0.46227399 2.383893
1.277544 0.46772 2.3818281
1.143376 0.474323 2.3891089
1.1548245 0.47434348 2.3847389
1.163584 0.47472101 2.380846
1.174314 0.47740549 2.3842964
1.1846451 0.478845 2.385536
1.213394 0.479168 2.3849809
1.222309 0.47254449 2.3838775
1.230304 0.47451299 2.3857801
1.250756 0.47816601 2.386085
1.27723 0.4745065 2.3838224
1.1248651 0.48184499 2.3843279
1.18712 0.48016 2.3887081
1.198667 0.48754999 2.3826931
1.2047271 0.48669699 2.380024
1.21329 0.481408 2.384351
1.2211111 0.48157001 2.3892009
1.238404 0.487611 2.3832419
1.2409971 0.48462498 2.3855491
1.254043 0.48852101 2.3882411
1.267929 0.48653501 2.3808639
1.2781219 0.48580599 2.3804941
1.1468534 0.49295253 2.3804903
1.1811965 0.49308151 2.3834305
1.199801 0.49920699 2.3891521
1.222867 0.49856901 2.3893099
1.230044 0.49854699 2.3873091
1.256157 0.49187699 2.3847201
1.261588 0.49532199 2.3884571
1.1290981 0.501315 2.3897159
1.132462 0.50019401 2.3811951
1.166093 0.50319397 2.3807909
1.177316 0.50805551 2.3839386
1.1943309 0.50045151 2.3858728
1.202984 0.50270998 2.3864641
1.220741 0.50476801 2.383285
1.243848 0.50373501 2.3874149
1.1251609 0.51576102 2.3875451
1.147119 0.51309198 2.3827929
1.151566 0.514736 2.384567
1.166903 0.51558697 2.38238
1.174273 0.517726 2.3858211
1.186205 0.51822853 2.3864465
1.2092919 0.51216698 2.3877234
1.231462 0.51375401 2.382803
1.1356056 0.52597702 2.3854885
1.1468556 0.52586198 2.3852315
1.158178 0.52207398 2.381583
1.168069 0.525397 2.3802431
1.1756955 0.52403265 2.3876729
1.1828425 0.52483904 2.3847561
1.204931 0.52544302 2.3849001
1.220836 0.522223 2.3845291
1.1697429 0.53837103 2.384506
1.1836109 0.53333348 2.3859625
1.194019 0.53291601 2.3885951
1.213534 0.53376698 2.387352
1.144399 0.54458201 2.385134
1.156442 0.54678601 2.3855381
1.162841 0.549537 2.3863311
1.178262 0.54824001 2.3889661
1.1855719 0.54412198 2.386708
1.1928051 0.54013902 2.383543
1.210086 0.54465997 2.384577
1.149526 0.55755901 2.38901
1.155509 0.55579799 2.3827469
1.166074 0.55774897 2.3812821
1.196812 0.552167 2.3858321
1.147953 0.56674302 2.3874431
1.1537091 0.565974 2.380677
1.169884 0.56540102 2.383677
1.1863105 0.56583595 2.3859797
1.1923831 0.56275898 2.3855889
1.124908 0.57447648 2.3846636
1.1532675 0.572622 2.381448
1.13226 0.58451402 2.385756
1.1456 0.585648 2.386272
1.159647 0.58578497 2.383692
1.175338 0.58324897 2.3824649
1.182337 0.58350801 2.388782
1.191892 0.580513 2.3828671
1.120603 0.59439898 2.384263
1.132001 0.59393799 2.3837559
1.166406 0.59499151 2.3885694
1.1767974 0.5933587 2.3861923
1.1894045 0.59543902 2.382724
1.11763 0.60323602 2.381181
1.137641 0.60707003 2.3883359
1.165861 0.60998499 2.3856521
1.1277145 0.61386895 2.3847604
1.134513 0.61375803 2.388196
1.1453664 0.61596847 2.3830147
1.1571259 0.61195201 2.3891189
1.1634735 0.616449 2.3838964
1.1767685 0.61115098 2.3871374
1.186125 0.614856 2.3845379
1.121732 0.62044501 2.3861909
1.135216 0.62434798 2.3855901
1.141932 0.626333 2.389437
1.1658241 0.628061 2.3871181
1.176458 0.62102199 2.3823199
1.184464 0.62457204 2.3852696
1.12679 0.63352001 2.380372
1.13484 0.63524997 2.383301
1.1449854 0.63623101 2.3851914
1.1542979 0.63833201 2.3887119
1.1931325 0.63346553 2.3859689
1.145519 0.64743799 2.3815899
1.154134 0.64807802 2.385221
1.180202 0.64142197 2.3838091
1.19392 0.64432198 2.3858671
1.148453 0.65627801 2.381335
1.1560404 0.65658903 2.385365
1.182387 0.658948 2.386924
1.1960289 0.65339947 2.3864431
1.1570715 0.66460097 2.3842771
1.1669327 0.66283661 2.3812361
1.174075 0.662444 2.3893621
1.1929951 0.66443503 2.3849502
1.1725687 0.67434931 2.3847058
1.187101 0.67351598 2.3872409
1.199819 0.67428601 2.383348
1.203757 0.67739201 2.3898571
1.1862 0.68345201 2.3848851
1.201172 0.6849125 2.384186
1.2115051 0.68016797 2.386761
1.171219 0.69003999 2.381187
1.1839371 0.69385803 2.3862865
1.197086 0.69361699 2.3815429
1.204174 0.69682598 2.387912
1.214071 0.6970275 2.3839481
1.222482 0.69588399 2.3899839
1.183201 0.70280403 2.38116
1.191623 0.70550001 2.387671
1.201095 0.70437503 2.38677
1.218737 0.70729601 2.3835781
1.223958 0.70836902 2.382195
1.192585 0.713121 2.385004
1.202812 0.71479201 2.3843141
1.215699 0.71858096 2.3851435
1.225266 0.71418297 2.3862219
1.191909 0.721407 2.3827541
1.2051325 0.72552752 2.3823116
1.214685 0.72724599 2.381412
1.2265486 0.72555649 2.385947
1.2340336 0.72796297 2.3852999
1.210117 0.73593497 2.386167
1.2257655 0.73423952 2.3875394
1.2141703 0.74364108 2.3874233
1.2215075 0.74762547 2.385114
1.236902 0.74104702 2.382467
1.245173 0.74232149 2.3869691
1.2511359 0.74707401 2.3880341
1.222235 0.75658202 2.3817179
1.2349634 0.75498348 2.3814445
1.242844 0.759745 2.3892109
1.256242 0.75605398 2.3892739
1.2279783 0.76421362 2.3840654
1.246582 0.76324803 2.38379
1.255583 0.76333201 2.385725
1.261389 0.76488203 2.3899591
1.238863 0.77045798 2.3839951
1.2409575 0.77458453 2.38679
1.253601 0.77401 2.3839021
1.272926 0.778813 2.38919
1.2430065 0.78462195 2.3849199
1.27504 0.78780103 2.3870211
1.249764 0.79319 2.386122
1.2564844 0.79305267 2.3852997
1.267362 0.79320699 2.3825481
1.27213 0.796 2.3856881
1.28425 0.79958397 2.3843119
1.265695 0.80619502 2.389869
1.2766815 0.80932045 2.386873
1.2868561 0.80727702 2.3831379
1.266283 0.81568849 2.3864675
1.2735637 0.81443959 2.3823378
1.291335 0.81069601 2.387563
1.2741871 0.82632703 2.3864489
1.286036 0.82709903 2.3800421
1.291502 0.820126 2.383677
1.305419 0.82574201 2.3866689
1.2867184 0.83287495 2.385803
1.3041598 0.83211273 2.3844461
1.2763 0.84629601 2.384861
1.2867351 0.841919 2.380476
1.2937191 0.84509051 2.3869061
1.302232 0.84325051 2.3818464
1.312076 0.8425225 2.3836222
1.298889 0.85934401 2.384439
1.320732 0.85578197 2.382859
1.2999851 0.86721402 2.384439
1.3051707 0.86666799 2.385226
1.315187 0.86914152 2.3814595
1.32575 0.86603248 2.3844895
1.3035746 0.87536597 2.3855882
1.316451 0.87298 2.387059
1.320889 0.87351799 2.381604
1.314003 0.88316202 2.385632
1.326246 0.88097399 2.382972
1.335004 0.88479036 2.3868721
1.3174011 0.89369798 2.385184
1.3254319 0.89244699 2.3858891
1.3363611 0.89644402 2.3883381
1.3400609 0.89606601 2.380856
1.306344 0.90305698 2.3821254
1.319764 0.90560299 2.387223
1.3260856 0.90640551 2.3849344
1.34514 0.90839398 2.3856649
1.3142765 0.91385901 2.3857765
1.323995 0.91350597 2.386555
1.331755 0.91553301 2.38571
1.324031 0.92459798 2.3811891
1.331872 0.92593598 2.3844907
1.350127 0.92264301 2.38972
1.3357346 0.93601549 2.3865914
1.343857 0.93735701 2.381192
1.351387 0.93034101 2.38831
1.319941 0.94616503 2.3823321
1.3343958 0.94376981 2.3842616
1.338835 0.95804602 2.3870611
1.3456604 0.95789099 2.3838649
1.3511159 0.95030898 2.381115
1.361555 0.951473 2.382513
1.327168 0.96565402 2.3857291
1.335204 0.96349698 2.3864789
1.3475389 0.968777 2.3823071
1.3634 0.96383953 2.3854616
1.3450718 0.97626901 2.3865819
1.3645625 0.97136903 2.3826175
1.33885 0.98395598 2.3823581
1.342175 0.98137498 2.3892729
1.3533294 0.986718 2.3851404
1.36806 0.98205602 2.383424
1.338196 0.99485701 2.3839171
1.367313 0.99495298 2.3837719
1.372542 0.99584699 2.3881731
1.334578 1.004652 2.3893299
1.346241 1.0016055 2.387233
1.3573725 1.005235 2.3848996
1.365492 1.001804 2.381032
1.373149 1.004297 2.3886271
1.358761 1.011382 2.387958
1.3727289 1.013316 2.3856609
1.380177 1.017406 2.3848059
1.339882 1.024496 2.3865969
1.374808 1.024307 2.3862095
1.382092 1.024919 2.3809531
1.359705 1.03324 2.384464
1.3827519 1.034887 2.3803279
1.3654556 1.0451056 2.3843467
1.378105 1.045555 2.3847771
1.385069 1.0484869 2.3836541
1.359127 1.054142 2.3857889
1.366375 1.0524216 2.3840814
1.376765 1.0562 2.3821621
1.386201 1.056127 2.382551
1.3755385 1.066455 2.3840132
1.3666589 1.0734315 2.3819015
1.371877 1.07416 2.38258
1.380831 1.075707 2.388768
1.359911 1.080357 2.3863411
1.375965 1.0845881 2.3843141
1.3881775 1.0846795 2.3858874
1.358128 1.091378 2.3872719
1.3670861 1.096275 2.389127
1.3735776 1.094793 2.38271
1.384064 1.094718 2.3800371
1.377149 1.102807 2.3835034
1.365347 1.110401 2.3872271
1.375198 1.1153899 2.3824661
1.384696 1.1171401 2.389307
1.360504 1.121101 2.3839769
1.3752379 1.127745 2.381233
1.382028 1.127527 2.3860941
1.3922606 1.1251841 2.3830945
1.369904 1.1354671 2.3865499
1.3764995 1.1353855 2.3821895
1.391414 1.137689 2.3811281
1.3685139 1.143629 2.388242
1.3745589 1.146726 2.3859911
1.366124 1.1549311 2.3859215
1.3741767 1.1570435 2.3857925
1.385715 1.157676 2.3865421
1.363197 1.163342 2.3885469
1.3726907 1.1673497 2.3859453
1.370834 1.176836 2.386981
1.383765 1.178377 2.3857369
1.369153 1.186527 2.3851559
1.370777 1.189629 2.3895929
1.36858 1.196894 2.3839071
1.375555 1.19777 2.389708
1.383644 1.191244 2.3879731
1.368608 1.204348 2.3820291
1.375963 1.2069759 2.3839111
1.3827906 1.2034831 2.3848491
1.373634 1.2149071 2.381839
1.3166995 0.0095314998 2.3948622
1.3559375 0.0062394999 2.3966594
1.367818 0.0070130001 2.3950491
1.3794529 0.006821 2.3908241
1.303229 0.014212 2.3901639
1.310658 0.016006 2.3975911
1.323885 0.010679 2.39692
1.3374439 0.010056 2.395931
1.3515584 0.014969999 2.394763
1.360613 0.019385001 2.394675
1.3823479 0.010111 2.399029
1.4005851 0.010475 2.391489
1.292761 0.027075 2.391351
1.376346 0.024254 2.391777
1.3871959 0.022624001 2.396899
1.422547 0.029693 2.398632
1.4344881 0.025852 2.395792
1.440335 0.026032001 2.3929069
1.30599 0.033774 2.3934889
1.3246295 0.033797499 2.395329
1.333988 0.032975502 2.3922205
1.342888 0.0344745 2.3977785
1.399966 0.037723001 2.3929191
1.4360991 0.038901001 2.3944769
1.4619091 0.039000001 2.3909349
1.32435 0.046884999 2.395381
1.402254 0.045366999 2.3979969
1.4150975 0.0426405 2.3935211
1.420256 0.048664 2.3949561
1.474396 0.049904998 2.3905251
1.436854 0.056869 2.3941805
1.4497235 0.057540499 2.3935099
1.470412 0.056774002 2.3949549
1.441846 0.065660998 2.3942206
1.450287 0.065764003 2.3978381
1.4847386 0.064856999 2.3965268
1.4507051 0.074616998 2.394609
1.460286 0.079579003 2.3906751
1.452322 0.084349997 2.3912849
1.461868 0.086452 2.3923659
1.43515 0.095642999 2.393095
1.440124 0.098650999 2.395052
1.4582 0.094113998 2.394001
1.470346 0.097956002 2.395761
1.446401 0.101597 2.3983469
1.467358 0.105135 2.3950701
1.4756629 0.10398 2.391047
1.518724 0.107439 2.3967609
1.49128 0.11903 2.39731
1.518831 0.115802 2.395
1.491523 0.129934 2.3994889
1.506653 0.122327 2.393261
1.514199 0.122952 2.3990779
1.523297 0.122074 2.390285
1.530952 0.12965199 2.393301
1.473491 0.134068 2.3977571
1.483066 0.133929 2.3913751
1.476403 0.14489549 2.3956785
1.49208 0.14800499 2.3986039
1.529075 0.144308 2.3906801
1.495293 0.15233199 2.3953159
1.525381 0.153951 2.394222
1.4960281 0.16411166 2.3907986
1.5060433 0.16670366 2.3962717
1.52477 0.162751 2.392451
1.48844 0.178085 2.3940079
1.513702 0.175733 2.397418
1.533479 0.178287 2.3957441
1.546331 0.170876 2.3906429
1.466583 0.18690699 2.394568
1.480162 0.188127 2.398114
1.4950711 0.184535 2.391855
1.515335 0.1867075 2.3940611
1.5281349 0.18806399 2.398664
1.499613 0.199303 2.395952
1.5147351 0.19615066 2.3931758
1.523456 0.199103 2.396888
1.544729 0.19825 2.397768
1.4542789 0.208224 2.3908701
1.464204 0.20943099 2.3964269
1.4742531 0.20514099 2.3910561
1.4963095 0.204329 2.3957319
1.5068491 0.201252 2.397696
1.523752 0.207651 2.3933589
1.541839 0.208777 2.3958249
1.52096 0.21570501 2.3992791
1.509081 0.228477 2.390249
1.488549 0.235007 2.3983819
1.499048 0.234099 2.3913341
1.508339 0.23267099 2.3914771
1.5178645 0.233438 2.3977852
1.5245243 0.23853566 2.3954618
1.470692 0.243267 2.396414
1.4888149 0.240679 2.3924451
1.5175281 0.245463 2.392139
1.528792 0.24321599 2.394048
1.4822609 0.25063601 2.392519
1.5152459 0.25628448 2.3959346
1.5318429 0.25496751 2.3969495
1.4758505 0.26728749 2.3977356
1.466218 0.27585199 2.3955779
1.505141 0.275033 2.3959589
1.5279911 0.277114 2.3927591
1.487029 0.28291398 2.3968115
1.5037251 0.28330952 2.3947945
1.51608 0.28620899 2.3941219
1.5226345 0.28770149 2.3917656
1.475574 0.29153901 2.3907089
1.495609 0.29309499 2.391042
1.5123255 0.29911199 2.3983386
1.475863 0.303837 2.3952899
1.483104 0.30306199 2.3906009
1.495007 0.305933 2.395009
1.508196 0.30791301 2.3988111
1.516993 0.308395 2.397161
1.479316 0.31916699 2.3991399
1.4910361 0.314771 2.3980551
1.504809 0.310361 2.3939769
1.514564 0.31561798 2.3953166
1.489309 0.32581899 2.397917
1.50459 0.326251 2.394228
1.475271 0.33533201 2.394979
1.487061 0.334346 2.3971851
1.464779 0.34272301 2.394917
1.473116 0.34362301 2.3937759
1.4890701 0.34422901 2.393863
1.4948788 0.34566736 2.3959296
1.453501 0.35429001 2.390244
1.460585 0.35451999 2.3954351
1.4749506 0.35446048 2.3954639
1.495235 0.35421252 2.3947611
1.415212 0.36671099 2.3962791
1.427799 0.36099201 2.399507
1.434106 0.36267301 2.3936679
1.442627 0.363269 2.3933511
1.473439 0.362445 2.395776
1.295841 0.377148 2.398946
1.327157 0.37504199 2.3900321
1.339977 0.37225801 2.397752
1.3543985 0.37335449 2.3939052
1.3874735 0.37443432 2.3971982
1.413723 0.377801 2.394594
1.4262429 0.37112501 2.39711
1.436258 0.37190101 2.3994
1.45654 0.37948 2.399997
1.464456 0.37226301 2.396193
1.157895 0.38378099 2.3902991
1.161741 0.38934499 2.391346
1.318554 0.383744 2.3953891
1.356442 0.389734 2.3997381
1.363234 0.38013601 2.3932099
1.4190331 0.387945 2.3983099
1.443957 0.386996 2.394515
1.146914 0.39720801 2.3973179
1.2858245 0.391022 2.3946149
1.2926691 0.395013 2.3907149
1.3046 0.39370501 2.3980119
1.332191 0.39565301 2.3916881
1.353338 0.39636499 2.3922441
1.3683619 0.39271 2.3972139
1.3820515 0.39566898 2.3942552
1.4038 0.39398399 2.3977101
1.413735 0.39497 2.3961909
1.146715 0.40395799 2.3959899
1.1528879 0.40257499 2.3984771
1.27434 0.40011501 2.396805
1.28372 0.40557599 2.397428
1.302672 0.40402201 2.3955841
1.3130291 0.40131199 2.3953049
1.3868459 0.40212899 2.3908501
1.394446 0.40024799 2.3904121
1.438916 0.40755001 2.390193
1.45732 0.40768901 2.3904619
1.1379761 0.41241801 2.3905599
1.158935 0.41578701 2.393358
1.164272 0.41982299 2.3911271
1.237318 0.418017 2.3919449
1.258619 0.419267 2.394022
1.2833077 0.41516533 2.3928516
1.295476 0.41468999 2.399997
1.3201621 0.41593099 2.3964801
1.362607 0.415782 2.3933721
1.386658 0.41538301 2.3939829
1.426918 0.417099 2.397155
1.127725 0.422306 2.3964181
1.135603 0.423605 2.3987
1.142134 0.42434701 2.391948
1.1565011 0.425374 2.3932631
1.222334 0.42454901 2.391257
1.231311 0.42938 2.3969059
1.2537045 0.4284595 2.397074
1.264761 0.42826301 2.3984621
1.27226 0.42001799 2.3931229
1.284834 0.42835 2.3958299
1.294336 0.42133901 2.398129
1.315416 0.42450798 2.3954601
1.36307 0.42865199 2.3986809
1.386372 0.42849001 2.3983309
1.391757 0.42401299 2.3964131
1.402138 0.42298901 2.395366
1.429366 0.428161 2.3998711
1.430541 0.42881 2.394773
1.444361 0.42373899 2.3963931
1.459956 0.42365 2.3918419
1.1320029 0.431723 2.3914621
1.140637 0.434057 2.390795
1.15307 0.43536851 2.393497
1.1625055 0.43353802 2.3928218
1.175666 0.43906799 2.390389
1.214591 0.436809 2.396095
1.228639 0.43376899 2.3967321
1.241195 0.434883 2.3951521
1.255875 0.43727699 2.3928151
1.299461 0.43241999 2.3963029
1.3107719 0.43043199 2.3963301
1.3256789 0.43398499 2.393012
1.3742864 0.437121 2.3967586
1.4396 0.43460801 2.3932469
1.148882 0.44519299 2.3961091
1.1550806 0.44320351 2.3965054
1.1652905 0.446843 2.3930435
1.174072 0.448414 2.390518
1.198999 0.44281799 2.3944299
1.216161 0.44290149 2.393219
1.241379 0.44541299 2.391942
1.2640209 0.44520435 2.3947284
1.282482 0.44595399 2.3967309
1.292161 0.44130301 2.395735
1.3029375 0.44168949 2.3994184
1.321946 0.44339401 2.3949151
1.376508 0.44101599 2.393014
1.385777 0.44657701 2.399657
1.147047 0.45391899 2.394628
1.1555469 0.45688349 2.3965859
1.166205 0.45723301 2.396019
1.174458 0.45727199 2.390234
1.182707 0.45168999 2.394856
1.197953 0.450654 2.3950031
1.211496 0.45419899 2.394356
1.2244411 0.45440599 2.3921559
1.232923 0.455421 2.39836
1.2455446 0.456357 2.3935704
1.287109 0.45532227 2.393528
1.294346 0.454972 2.3943241
1.372746 0.45526701 2.3975401
1.1239935 0.46390101 2.3927908
1.132974 0.464012 2.392621
1.1409971 0.46471199 2.3997419
1.1537189 0.467217 2.397181
1.167379 0.46814299 2.3960481
1.180838 0.46509498 2.3944011
1.19542 0.46059701 2.3939891
1.20811 0.46404001 2.3940279
1.235165 0.465969 2.3935766
1.244909 0.46709999 2.397119
1.1219211 0.47669548 2.3964956
1.1313699 0.47300899 2.3928549
1.155956 0.4763605 2.3981462
1.1651061 0.47717801 2.3945811
1.1767294 0.47521901 2.3965394
1.186623 0.47146499 2.399996
1.195722 0.470577 2.393719
1.205641 0.472637 2.3957133
1.216095 0.47292501 2.3979681
1.2284631 0.47624001 2.3961551
1.236515 0.473032 2.391566
1.131308 0.48084801 2.391691
1.149027 0.485636 2.3946249
1.1641949 0.48754001 2.3933949
1.1717634 0.48478299 2.39925
1.187865 0.48039499 2.3997591
1.204445 0.48324251 2.394078
1.22737 0.48528999 2.3936391
1.237009 0.48622099 2.390522
1.2742735 0.482602 2.392581
1.127552 0.49126801 2.3908999
1.1353 0.49372399 2.3928671
1.15741 0.49712101 2.3994579
1.1695139 0.49941599 2.3966219
1.175216 0.49384099 2.3909099
1.183584 0.49839601 2.3952601
1.191581 0.492163 2.3907149
1.200853 0.49364299 2.3957429
1.22392 0.4939805 2.3947165
1.248668 0.49050799 2.3917961
1.127623 0.50601 2.3959391
1.146976 0.50592399 2.3904841
1.155882 0.50830901 2.3974299
1.1616 0.50746298 2.3901751
1.1711479 0.50497597 2.3972421
1.184034 0.50634801 2.3959184
1.220729 0.50500298 2.399404
1.246578 0.50160599 2.3932059
1.124015 0.51445901 2.3944783
1.1364955 0.51219451 2.3949003
1.1532919 0.51779699 2.396709
1.16732 0.51588249 2.3958559
1.207198 0.51522851 2.3963034
1.1247845 0.5267005 2.3939085
1.1356466 0.52500498 2.3924665
1.1662005 0.52430499 2.3941374
1.1793211 0.52525598 2.3930261
1.1854875 0.52164102 2.3962574
1.193987 0.52121198 2.390713
1.203243 0.52276498 2.3954821
1.1557785 0.53455549 2.3945332
1.178205 0.53953099 2.3938961
1.192109 0.531986 2.3928962
1.221568 0.53004903 2.3979521
1.1317281 0.540178 2.39029
1.1471915 0.54672647 2.395535
1.1504821 0.54775602 2.390218
1.163293 0.54798502 2.3900809
1.178084 0.54692602 2.391016
1.1868274 0.54210603 2.396822
1.191226 0.54983598 2.3906381
1.202388 0.54155099 2.396812
1.2170449 0.54396099 2.3972311
1.144411 0.55851603 2.3965909
1.1735725 0.55865598 2.3924532
1.184392 0.55436301 2.3948159
1.1942375 0.55695498 2.393775
1.218111 0.553707 2.394526
1.1427619 0.56718498 2.3976431
1.168825 0.56069702 2.395282
1.17012 0.56903702 2.3913291
1.184207 0.56271499 2.3934741
1.1941929 0.56443596 2.3969791
1.1282099 0.570696 2.398649
1.141919 0.57606697 2.3944311
1.164122 0.57128298 2.399828
1.17544 0.57958102 2.390564
1.182124 0.57274902 2.391495
1.134389 0.58701497 2.398299
1.1439025 0.58702898 2.3953686
1.1662186 0.58320898 2.3948338
1.177214 0.58208603 2.397136
1.123176 0.598827 2.3911891
1.135601 0.597516 2.3926301
1.145179 0.59785402 2.3971751
1.1615829 0.59014302 2.3958709
1.187937 0.59239799 2.396209
1.190329 0.59575301 2.3933959
1.130006 0.60588598 2.3928981
1.142735 0.60791498 2.3936601
1.168571 0.60033 2.3933361
1.180956 0.60399902 2.3998899
1.195437 0.604137 2.3997011
1.1304491 0.613316 2.3904581
1.1433851 0.61822701 2.3911741
1.154127 0.61572063 2.395272
1.164809 0.61725152 2.3931
1.1947615 0.61380804 2.3952575
1.200924 0.61023402 2.394033
1.151354 0.62818098 2.3949189
1.165108 0.62011302 2.3972399
1.178858 0.62259102 2.39729
1.1955614 0.6238085 2.3931861
1.162987 0.63999403 2.3932991
1.177938 0.63274199 2.3946559
1.1956238 0.63393193 2.3934803
1.2056191 0.63675904 2.3970635
1.176113 0.64278001 2.3918409
1.195323 0.64462948 2.3948364
1.207204 0.646267 2.397543
1.161317 0.65083802 2.390172
1.174981 0.652973 2.3922999
1.1857204 0.65560299 2.3944836
1.1956153 0.65396136 2.3928614
1.20049 0.65572798 2.390502
1.2134995 0.65452397 2.3938966
1.165002 0.66105503 2.3901789
1.170195 0.66090602 2.3957
1.182955 0.66439998 2.3969331
1.197904 0.66256601 2.39906
1.205443 0.66749847 2.3955932
1.213505 0.668854 2.3989389
1.189023 0.67566198 2.399987
1.205116 0.677459 2.393059
1.182361 0.68357003 2.3919101
1.194064 0.68484199 2.3910611
1.2054167 0.68595695 2.3946009
1.2146029 0.68917698 2.395098
1.195361 0.69580424 2.3953483
1.204813 0.69678301 2.392307
1.2118371 0.697685 2.3939581
1.222398 0.69475245 2.392179
1.198314 0.70596802 2.3930681
1.214626 0.70771933 2.3945668
1.2238799 0.70398331 2.3989336
1.230584 0.70104998 2.3905671
1.205619 0.71699202 2.3978169
1.2167746 0.71352339 2.3976452
1.227229 0.715855 2.395268
1.230942 0.71001297 2.3968329
1.202638 0.72482598 2.3914969
1.2155515 0.72793299 2.3931201
1.232231 0.72092402 2.3927629
1.217178 0.73813999 2.392848
1.2350377 0.73398799 2.3974674
1.245814 0.73304498 2.3959489
1.2242695 0.745345 2.3982625
1.25183 0.74483502 2.3974669
1.224372 0.75597101 2.3935361
1.2355343 0.75352699 2.3945138
1.2544036 0.75434804 2.3966236
1.260614 0.75975603 2.3929369
1.234972 0.76941502 2.3911049
1.248296 0.76433897 2.3934135
1.2642795 0.76407003 2.3955278
1.2462645 0.775949 2.3920259
1.254994 0.77893698 2.3923731
1.2647254 0.77534276 2.3939643
1.245156 0.782377 2.392447
1.255687 0.78375226 2.3955145
1.281253 0.78986001 2.395046
1.2639507 0.79496336 2.3971367
1.284139 0.79301798 2.398391
1.2573718 0.80196863 2.3932264
1.264879 0.804775 2.394134
1.275631 0.80831999 2.397157
1.288058 0.80016601 2.397676
1.268487 0.81869203 2.3918741
1.2749701 0.81528401 2.394753
1.286551 0.819619 2.3931539
1.2974221 0.81443 2.3940499
1.2949121 0.8254475 2.3960154
1.304312 0.82637602 2.3958449
1.268899 0.83204597 2.393316
1.2787941 0.83028001 2.3991799
1.283541 0.83613646 2.3929906
1.293282 0.831734 2.3974609
1.306543 0.83394599 2.396148
1.2813375 0.84833652 2.3981266
1.29204 0.84058601 2.3964469
1.305398 0.84385997 2.3943529
1.314731 0.84548998 2.3965502
1.289971 0.85565698 2.399653
1.2937353 0.85567719 2.3966606
1.3047611 0.852736 2.3922529
1.31873 0.853181 2.3911209
1.321897 0.85784 2.3992951
1.2870381 0.8657195 2.3930271
1.2948685 0.86393547 2.39679
1.312165 0.864685 2.3980081
1.324715 0.86695302 2.395818
1.295831 0.8755275 2.394918
1.308382 0.87922502 2.3912759
1.328262 0.87118101 2.3986139
1.307673 0.88817298 2.3934319
1.315871 0.885656 2.399812
1.308062 0.891119 2.3985851
1.31179 0.89293998 2.3940649
1.328113 0.89724499 2.3968101
1.339506 0.89882398 2.395474
1.318413 0.90407449 2.3959835
1.3244346 0.90565997 2.3948491
1.311146 0.91181999 2.3953741
1.326323 0.91993701 2.39465
1.309162 0.92740101 2.392164
1.3138371 0.92562598 2.3968179
1.326869 0.92452401 2.3921511
1.3353829 0.92829096 2.3941545
1.345986 0.92089999 2.39694
1.329909 0.93242103 2.391628
1.3354225 0.946091 2.3927736
1.3429245 0.94867146 2.3947606
1.356172 0.94244099 2.391639
1.3356365 0.95340848 2.3920007
1.342136 0.95786399 2.392731
1.360231 0.95762002 2.39815
1.3611619 0.96504098 2.395611
1.3371816 0.97582549 2.3955915
1.348538 0.970676 2.395541
1.352222 0.972323 2.3976009
1.34418 0.98049605 2.3937426
1.3661931 0.98443699 2.3967669
1.3483365 0.99510896 2.392323
1.353187 0.99252599 2.398412
1.3635045 0.99276334 2.3938739
1.343372 1.006022 2.396189
1.3535939 1.003698 2.3979411
1.374969 1.0066791 2.3928349
1.338859 1.019348 2.3950689
1.3443245 1.0143145 2.3987141
1.3523329 1.013034 2.393846
1.3680716 1.0160685 2.3950205
1.373163 1.0144839 2.3944721
1.3458345 1.0259609 2.3959389
1.357038 1.0232069 2.398576
1.363449 1.022619 2.3911691
1.358268 1.035324 2.398706
1.3629431 1.034001 2.390342
1.3746217 1.036309 2.3951838
1.357298 1.04395 2.3985801
1.382167 1.046477 2.390554
1.357989 1.051739 2.3955159
1.3647571 1.0549815 2.396673
1.375743 1.057656 2.3993399
1.380834 1.056933 2.39113
1.348562 1.063379 2.3938951
1.35421 1.0612659 2.3989091
1.3648009 1.0628281 2.3904035
1.366901 1.075176 2.391221
1.3745821 1.075361 2.394259
1.3834155 1.074576 2.3944716
1.365067 1.0835921 2.3925469
1.3756111 1.0866865 2.3965878
1.3849699 1.088735 2.391506
1.360013 1.09234 2.3974831
1.370772 1.096835 2.3918209
1.3656501 1.1072839 2.398798
1.370364 1.106135 2.3918669
1.3859794 1.108547 2.391304
1.364361 1.114985 2.3989871
1.3743606 1.116323 2.3937545
1.386853 1.118191 2.3915811
1.357995 1.120711 2.39906
1.3671839 1.125713 2.3939686
1.374117 1.127474 2.3927679
1.3649731 1.1368361 2.395196
1.3717375 1.1380861 2.391052
1.383616 1.138872 2.3939471
1.3575439 1.14068 2.397619
1.3641332 1.1469628 2.3965592
1.356926 1.157065 2.3981619
1.366068 1.157457 2.3974531
1.365895 1.167964 2.396066
1.381372 1.164173 2.399477
1.363377 1.1777456 2.3946915
1.3745685 1.1794815 2.3958783
1.380164 1.171773 2.398773
1.364272 1.1871229 2.3925869
1.3796384 1.184797 2.3959565
1.35728 1.19824 2.3991489
1.36578 1.197727 2.393301
1.378612 1.1998971 2.3923941
1.363593 1.2067034 2.392803
1.3712111 1.208606 2.399622
1.354359 1.2105269 2.3988731
1.3644855 1.2153475 2.3965979
1.375525 1.21073 2.3938291
1.306272 0.018247999 2.405134
1.3227839 0.014024001 2.4066045
1.360198 0.016539 2.4067831
1.380218 0.016814001 2.405499
1.303743 0.028093999 2.403981
1.313277 0.025505001 2.4025841
1.3552384 0.020706 2.4031675
1.366341 0.02121 2.4046121
1.4148846 0.026859 2.4042745
1.4284149 0.026728 2.4049411
1.33007 0.038513999 2.4009869
1.3546115 0.037844501 2.4069576
1.3642091 0.034518 2.403872
1.370178 0.037983999 2.407027
1.386197 0.03827 2.405195
1.39349 0.039351001 2.400249
1.4535074 0.038577501 2.4035306
1.309798 0.046463002 2.4079239
1.320459 0.041377999 2.408802
1.334316 0.042029001 2.409312
1.358279 0.041636001 2.4088249
1.364679 0.040155001 2.403331
1.384063 0.043931998 2.4067731
1.3957076 0.044998497 2.4021745
1.4000371 0.040219001 2.4052069
1.416092 0.049477 2.4042909
1.427394 0.041955002 2.402612
1.450053 0.045616999 2.4072831
1.425838 0.053282 2.402952
1.4336261 0.059831999 2.40851
1.444288 0.056180999 2.4085076
1.453128 0.054974999 2.4009931
1.4766176 0.056091502 2.4034834
1.483132 0.054093 2.400908
1.454596 0.068696998 2.4085369
1.472411 0.077745996 2.4027829
1.4664625 0.083884001 2.4052706
1.471441 0.089087002 2.400161
1.469233 0.094541997 2.4039831
1.476707 0.096589997 2.4068666
1.5017689 0.092188999 2.406672
1.478476 0.10474101 2.4018416
1.485786 0.101016 2.40891
1.4758736 0.11373667 2.4029794
1.4856391 0.111774 2.4025946
1.475437 0.12660301 2.408464
1.494843 0.123851 2.4038229
1.480306 0.137834 2.4034381
1.496527 0.1355215 2.4054942
1.486562 0.147433 2.4072101
1.4940236 0.1443575 2.4070685
1.492715 0.159255 2.40345
1.5034205 0.155368 2.4009619
1.514304 0.158196 2.4060891
1.5250911 0.157443 2.409678
1.4657 0.168118 2.403811
1.500934 0.161998 2.408803
1.5137538 0.16566433 2.4053888
1.523242 0.169958 2.405724
1.463698 0.17122599 2.4018371
1.474089 0.17724401 2.4033129
1.5194221 0.176414 2.4053509
1.467268 0.182365 2.409935
1.509359 0.182493 2.400676
1.520224 0.198312 2.4041891
1.535707 0.19368801 2.405055
1.543236 0.190598 2.4000449
1.466601 0.200304 2.400197
1.4856761 0.204996 2.4034441
1.510762 0.204015 2.401144
1.5230095 0.20901501 2.404206
1.477576 0.21187501 2.404238
1.5017149 0.236637 2.402046
1.516484 0.239774 2.4092121
1.5368841 0.23464599 2.403173
1.4852605 0.24573201 2.4040041
1.509904 0.24556801 2.401052
1.51387 0.24767201 2.407203
1.5249747 0.24611335 2.404577
1.47861 0.253759 2.400213
1.50195 0.25276601 2.409997
1.512603 0.25752401 2.4064119
1.524788 0.25957 2.406045
1.468653 0.261022 2.4000289
1.4831915 0.26490402 2.4046185
1.5060456 0.265499 2.4036119
1.510556 0.268471 2.403969
1.525016 0.26996899 2.402005
1.493515 0.270055 2.406512
1.5156159 0.2752395 2.4063544
1.5283099 0.271276 2.4094219
1.499463 0.28458199 2.403177
1.504318 0.2888225 2.4040899
1.5141979 0.298931 2.404788
1.4814399 0.30918401 2.4098339
1.4927057 0.30298999 2.4065082
1.4879609 0.31474435 2.4031126
1.4752077 0.326709 2.4061089
1.482412 0.32554701 2.4028239
1.4739671 0.33275151 2.4049079
1.482295 0.33826301 2.4094031
1.4980669 0.3343645 2.4084501
1.456959 0.34406701 2.405534
1.466928 0.344574 2.40309
1.472104 0.34169 2.40258
1.486259 0.34587899 2.405539
1.4936 0.34647301 2.401274
1.40994 0.35653299 2.4074919
1.422654 0.35994801 2.4054749
1.4323699 0.35351899 2.4030869
1.441061 0.354166 2.400779
1.4538749 0.35325301 2.4021659
1.475806 0.35225001 2.4012101
1.4843227 0.35389301 2.4039218
1.49257 0.35285801 2.407882
1.318924 0.36977801 2.406404
1.381695 0.364806 2.4051089
1.3926125 0.364252 2.408958
1.4048491 0.36739701 2.40292
1.435953 0.362735 2.4019811
1.4543747 0.36178598 2.4058568
1.4664789 0.360502 2.4059131
1.304072 0.37366 2.4067211
1.3253574 0.37408349 2.403162
1.3406039 0.37074399 2.4019971
1.423059 0.37045699 2.4036729
1.478193 0.37131199 2.40013
1.297531 0.38497901 2.403511
1.312687 0.38639 2.4033401
1.336 0.38665 2.4093511
1.3449335 0.3877995 2.4030938
1.355207 0.38832101 2.4093239
1.3723201 0.389267 2.407722
1.384657 0.383874 2.4079013
1.3986419 0.38679001 2.4080119
1.414382 0.38633299 2.4073091
1.424909 0.38686499 2.405056
1.438398 0.38654599 2.400599
1.4448845 0.38066399 2.4067054
1.304387 0.39550701 2.4088149
1.320685 0.394835 2.401284
1.34567 0.390196 2.408469
1.360458 0.39077899 2.4035051
1.376564 0.39377701 2.4003985
1.398674 0.39177701 2.402142
1.1406471 0.40705299 2.4012179
1.281868 0.40090999 2.402833
1.3055515 0.40504751 2.4064851
1.316214 0.403054 2.4060781
1.368458 0.40628001 2.402333
1.37413 0.40959299 2.4026599
1.440608 0.405211 2.4010041
1.4506481 0.40613002 2.4072518
1.463686 0.40778399 2.409941
1.142626 0.41640401 2.4028912
1.272229 0.41801301 2.402355
1.287686 0.41523299 2.408375
1.325806 0.41892999 2.405581
1.371128 0.41941401 2.4020891
1.385957 0.41231501 2.409111
1.399622 0.416899 2.4037781
1.442368 0.41600299 2.401772
1.454888 0.413784 2.4072061
1.127481 0.42975101 2.400142
1.235755 0.427715 2.4002409
1.253055 0.42042899 2.402864
1.30248 0.42699599 2.405338
1.3162545 0.424099 2.405591
1.368709 0.42344099 2.4091079
1.389447 0.42536399 2.4062021
1.44209 0.42515799 2.4030931
1.143949 0.43309501 2.4031589
1.2277036 0.438366 2.4035807
1.2369111 0.436212 2.4025559
1.247744 0.433532 2.405988
1.259016 0.43840301 2.403312
1.272686 0.431786 2.4075091
1.2841949 0.43362749 2.403424
1.294728 0.431261 2.403311
1.305827 0.43264699 2.4070549
1.3847765 0.43180048 2.4021249
1.3943055 0.43643647 2.4078636
1.406803 0.43189001 2.4020109
1.433181 0.431027 2.409539
1.145348 0.44745699 2.4004829
1.225037 0.44566947 2.4043632
1.233795 0.44765899 2.4016221
1.254823 0.44995001 2.4044149
1.263519 0.440043 2.4055419
1.2748485 0.44172651 2.4044294
1.2815289 0.44875801 2.4053049
1.13437 0.456909 2.4035931
1.141526 0.45539001 2.4013169
1.206874 0.45267299 2.4011819
1.215022 0.45553601 2.4028134
1.240113 0.45867801 2.404963
1.253854 0.45904601 2.4027331
1.2825301 0.45523199 2.402
1.2976916 0.45741901 2.4051809
1.131 0.46090201 2.404783
1.158269 0.46924499 2.4006181
1.19489 0.465078 2.4036455
1.203576 0.46678603 2.4050031
1.210793 0.46562299 2.4051421
1.225738 0.467255 2.404434
1.2394069 0.46652299 2.402992
1.250998 0.46865299 2.403199
1.2624135 0.46566051 2.404999
1.270246 0.466019 2.4035299
1.280854 0.46530899 2.400171
1.136674 0.472406 2.4052479
1.143582 0.47780201 2.402842
1.196364 0.475339 2.4062049
1.209403 0.47547799 2.4042361
1.22414 0.47667801 2.4050779
1.23254 0.477348 2.4065859
1.25437 0.4772495 2.407402
1.275773 0.47387201 2.4007571
1.145046 0.48585099 2.402123
1.1572649 0.48727199 2.4000139
1.165828 0.489546 2.403321
1.1855071 0.4828485 2.4070735
1.195617 0.48394701 2.403888
1.2051805 0.48361999 2.4066706
1.222586 0.48565301 2.402087
1.234271 0.487463 2.406255
1.2431777 0.48314467 2.4050148
1.1358986 0.49315536 2.4029372
1.164341 0.49997801 2.4038939
1.1724496 0.49576101 2.4072959
1.181177 0.49104401 2.403522
1.193553 0.49331799 2.4047649
1.215153 0.49649099 2.408011
1.229875 0.497426 2.4066091
1.139726 0.50563699 2.405926
1.1454356 0.50780201 2.4018421
1.154078 0.50524354 2.4050117
1.163357 0.50990099 2.402581
1.177852 0.50101399 2.403904
1.1871361 0.504592 2.409929
1.192466 0.50254202 2.403367
1.2035303 0.50359666 2.4028525
1.23183 0.50837201 2.40943
1.148752 0.51844299 2.4035721
1.1732695 0.51146996 2.404635
1.1854891 0.51446301 2.408623
1.190703 0.51141101 2.401217
1.2151245 0.5158965 2.4039195
1.138029 0.529782 2.401715
1.143981 0.52744949 2.4041524
1.1563995 0.52426803 2.4059734
1.1660004 0.5239473 2.4058344
1.196197 0.525056 2.4037631
1.2164807 0.52497 2.4043663
1.14446 0.53764701 2.4026189
1.1540591 0.53792697 2.4050591
1.181388 0.53168398 2.406322
1.209729 0.53632998 2.4030499
1.1379761 0.543181 2.4011359
1.151006 0.54951 2.4039979
1.1638756 0.54087353 2.4066465
1.1854784 0.54388201 2.4067919
1.199834 0.54807001 2.406354
1.203375 0.546354 2.40711
1.2150331 0.54445499 2.408227
1.227439 0.54962099 2.400393
1.246392 0.54513699 2.403425
1.14258 0.55850452 2.4046495
1.159186 0.551862 2.408252
1.164378 0.55133498 2.4028549
1.177882 0.55330598 2.4012301
1.184661 0.55689502 2.4072249
1.2053317 0.55725569 2.404146
1.2203259 0.559771 2.4045391
1.240796 0.55497402 2.4094279
1.1448951 0.56950301 2.4020081
1.1500829 0.56039202 2.4035921
1.1620589 0.56120902 2.4014931
1.171819 0.56301802 2.4078629
1.182767 0.56759602 2.406359
1.197418 0.56334698 2.4051471
1.206192 0.56199402 2.4015441
1.2211421 0.562877 2.4023099
1.135728 0.57955402 2.400255
1.144524 0.575028 2.4013896
1.15617 0.57843101 2.4039481
1.1744567 0.57258099 2.4038708
1.1842411 0.57301003 2.4056389
1.19811 0.57481998 2.40309
1.205994 0.57858902 2.4096191
1.168191 0.58122897 2.404449
1.1839521 0.58606648 2.404855
1.196849 0.58572799 2.4018209
1.204886 0.58591801 2.4071219
1.2222281 0.58729202 2.4091871
1.140182 0.59058303 2.400573
1.1655436 0.59109849 2.4051771
1.176144 0.593885 2.40815
1.180402 0.59206301 2.401685
1.192909 0.59440649 2.4044299
1.2040401 0.59731001 2.4068589
1.164289 0.60258603 2.4036479
1.175612 0.60448551 2.4061451
1.202819 0.60806501 2.40433
1.214903 0.602449 2.4064009
1.1655555 0.61574548 2.4043989
1.1750305 0.61580801 2.4072733
1.20084 0.61618698 2.4018099
1.223567 0.61901599 2.407738
1.163928 0.62328702 2.4046321
1.17232 0.62243199 2.404068
1.186273 0.62480003 2.4028571
1.19602 0.62571752 2.404947
1.208431 0.62783599 2.4087679
1.2124881 0.62053603 2.40944
1.167612 0.63335901 2.4033279
1.171854 0.63181603 2.402389
1.181076 0.633901 2.408154
1.193657 0.63779902 2.4067521
1.203209 0.636213 2.403585
1.210299 0.63615203 2.4038651
1.1800849 0.64515001 2.405457
1.1956429 0.64012998 2.407526
1.2047459 0.645504 2.4024012
1.2120709 0.64550251 2.4082119
1.17678 0.65439397 2.401999
1.189505 0.655608 2.402699
1.2058591 0.65567398 2.4030674
1.2104959 0.65270501 2.40944
1.179269 0.66984099 2.4024
1.187703 0.66692603 2.4046149
1.198084 0.66657799 2.4075694
1.211972 0.6649785 2.407433
1.220629 0.661268 2.407541
1.1839011 0.67023849 2.4073734
1.220771 0.67277902 2.4078491
1.19473 0.68659002 2.4023631
1.206997 0.68542528 2.4031754
1.2135925 0.68485498 2.4060407
1.2226605 0.6850515 2.4031181
1.2051046 0.698762 2.404963
1.22932 0.693766 2.4081089
1.2059727 0.70679861 2.4052422
1.2146976 0.70518535 2.4042523
1.2349401 0.70551699 2.4028764
1.19596 0.713471 2.4004719
1.240342 0.71413702 2.4060531
1.2129996 0.72394097 2.4025886
1.227814 0.72306502 2.4093056
1.2436631 0.72465253 2.405026
1.2179165 0.73484451 2.4032245
1.226078 0.73255998 2.4024861
1.244589 0.73714495 2.406292
1.229169 0.74624699 2.4084449
1.232224 0.74297702 2.4053791
1.2424555 0.74739647 2.4056711
1.233204 0.759238 2.404278
1.24279 0.75043797 2.400347
1.252928 0.75434554 2.4093461
1.2426804 0.76476198 2.4042253
1.26422 0.76395702 2.405829
1.246871 0.77646101 2.4079514
1.251134 0.77469599 2.404947
1.262729 0.77931398 2.4032879
1.2722009 0.77265 2.402483
1.2363725 0.78305852 2.4041514
1.2566329 0.78648669 2.4018428
1.2631215 0.78394604 2.402905
1.2757268 0.78499252 2.4048657
1.269665 0.79914403 2.4062941
1.283223 0.79092801 2.4069541
1.2681495 0.80402553 2.4046116
1.2728291 0.80007499 2.405823
1.293277 0.80609298 2.4014609
1.2770381 0.812608 2.4057331
1.294238 0.81147999 2.400034
1.3004071 0.81651002 2.4059401
1.269364 0.82622302 2.4015219
1.281311 0.82081097 2.4016891
1.2965205 0.83510053 2.40341
1.310636 0.835141 2.400316
1.288605 0.84170699 2.4041045
1.2926064 0.84658796 2.4077897
1.3162 0.84807402 2.4069309
1.318607 0.85726601 2.4054079
1.2863824 0.86739552 2.4044046
1.298219 0.86296701 2.4074011
1.304994 0.86559498 2.403966
1.323507 0.86836702 2.4081621
1.2952543 0.87200332 2.4044964
1.3065984 0.87161446 2.404887
1.317521 0.87839597 2.4013071
1.330217 0.87880701 2.4003069
1.292118 0.88241202 2.402647
1.333069 0.88629103 2.404187
1.3125401 0.89560199 2.4046695
1.336051 0.89868802 2.402173
1.3139856 0.90758348 2.4032919
1.320098 0.908158 2.405766
1.3365901 0.90686595 2.405442
1.3175859 0.91634899 2.4073861
1.3421575 0.9131335 2.4025722
1.311281 0.92251801 2.401257
1.3232036 0.92587447 2.4049911
1.3386896 0.93793452 2.401994
1.348901 0.93377799 2.402096
1.321256 0.94274998 2.401809
1.330887 0.941405 2.409555
1.346161 0.94307101 2.409148
1.3362424 0.95492148 2.4010034
1.345903 0.95193797 2.4071071
1.3531775 0.95495498 2.407496
1.3306251 0.96857351 2.4084544
1.35769 0.963898 2.4016399
1.346225 0.97257501 2.4066055
1.3580575 0.97557151 2.4049144
1.36097 0.98355699 2.404902
1.339811 0.99173802 2.4074819
1.343308 0.99375659 2.4044094
1.3676009 1.0055466 2.4047976
1.347039 1.010396 2.404098
1.356004 1.015238 2.40523
1.333747 1.02397 2.403779
1.3460915 1.022279 2.404985
1.352823 1.025376 2.4074931
1.367401 1.0250605 2.4035585
1.37007 1.0278521 2.4097409
1.351184 1.034215 2.4052424
1.365945 1.03555 2.4048691
1.37534 1.035475 2.40153
1.352088 1.0433429 2.405472
1.362571 1.048898 2.4038489
1.371194 1.040341 2.409832
1.34736 1.054876 2.409966
1.356398 1.056752 2.409133
1.369954 1.058583 2.409586
1.357621 1.06462 2.4070189
1.361886 1.064347 2.4010711
1.379053 1.069549 2.40344
1.355153 1.076334 2.407654
1.3639746 1.0742215 2.4015515
1.359223 1.082094 2.403538
1.3624226 1.0867547 2.4037335
1.374902 1.0899431 2.408366
1.3623476 1.095137 2.406359
1.374226 1.0973459 2.4068811
1.380936 1.0994999 2.404386
1.359398 1.106689 2.4060521
1.373346 1.107944 2.405164
1.380625 1.108713 2.4027209
1.359416 1.115265 2.4048989
1.369172 1.117882 2.4026279
1.381577 1.1187429 2.4007871
1.359597 1.126825 2.4034989
1.3651714 1.1281431 2.4052944
1.3759346 1.1251975 2.4080553
1.3534734 1.1391425 2.40591
1.362002 1.139053 2.408098
1.346351 1.142007 2.402349
1.361782 1.148456 2.4068091
1.37563 1.148841 2.4058461
1.360942 1.158251 2.4058011
1.377314 1.152528 2.40854
1.359254 1.168133 2.404726
1.3765781 1.165189 2.4061785
1.3591955 1.1791965 2.4016736
1.363851 1.179763 2.4025171
1.375077 1.179916 2.4050021
1.357499 1.188143 2.4016881
1.374257 1.188697 2.40307
1.35014 1.197648 2.40745
1.3638608 1.1939058 2.4055588
1.372918 1.199729 2.4015279
1.347717 1.20959 2.406718
1.363131 1.2085121 2.404891
1.350755 1.213438 2.4055769
1.322984 0.014842 2.417855
1.333987 0.016859001 2.4163001
1.374097 0.017871 2.411608
1.391463 0.024524 2.410486
1.423389 0.0274 2.4121959
1.304816 0.034013499 2.4165926
1.33087 0.03167 2.4154129
1.3424619 0.030873001 2.413862
1.443971 0.039572001 2.4152279
1.309477 0.040127002 2.4198411
1.311413 0.046861 2.412951
1.3266425 0.0450975 2.4121089
1.343931 0.042008001 2.4136081
1.355685 0.044411998 2.4173801
1.3661871 0.042246997 2.417943
1.3767869 0.044886 2.4116509
1.388613 0.040902998 2.4193549
1.394148 0.047614999 2.414957
1.4034934 0.044929668 2.4168055
1.419878 0.049941 2.4123981
1.423842 0.040713999 2.4102149
1.44455 0.046893999 2.4154241
1.45342 0.041958999 2.414006
1.413518 0.054682001 2.4184949
1.469654 0.052074 2.410033
1.4244305 0.066481501 2.4151564
1.44477 0.065029003 2.411567
1.468681 0.065743998 2.4116311
1.449208 0.073844001 2.4161689
1.462003 0.070964999 2.417105
1.496871 0.078281 2.419188
1.472788 0.08640299 2.4134309
1.487126 0.095660999 2.4113419
1.496858 0.091985002 2.418036
1.491895 0.106502 2.4149549
1.488698 0.114208 2.4196861
1.499379 0.115919 2.4167919
1.504329 0.1117865 2.4109154
1.487358 0.122264 2.4148769
1.50253 0.126872 2.415014
1.507735 0.13649249 2.4163799
1.476133 0.145283 2.412298
1.498962 0.150234 2.412843
1.5083899 0.15397801 2.4170051
1.5148619 0.15990099 2.415719
1.466427 0.177554 2.411598
1.476429 0.17679501 2.41466
1.5175641 0.18574999 2.4121749
1.519341 0.198755 2.414938
1.47939 0.21751399 2.416044
1.518664 0.217517 2.414079
1.518015 0.227066 2.4108541
1.509456 0.23318 2.4184921
1.511104 0.238464 2.4182811
1.536298 0.23317 2.4113741
1.483353 0.258789 2.419462
1.5070961 0.25819701 2.4150209
1.526747 0.2587665 2.4125094
1.4952765 0.27327049 2.4125762
1.522616 0.279351 2.414187
1.4965346 0.28843701 2.414892
1.504149 0.287682 2.4132199
1.5132231 0.282904 2.414124
1.482271 0.29882601 2.4198511
1.490309 0.29103601 2.410934
1.501717 0.292512 2.417347
1.5171854 0.29111302 2.4149275
1.486243 0.3066805 2.4120519
1.4915464 0.30747199 2.4149957
1.515254 0.302147 2.415097
1.4811521 0.31673899 2.4145899
1.495043 0.317633 2.4120851
1.4782979 0.324218 2.412869
1.487407 0.329781 2.415879
1.4662466 0.33506849 2.4152095
1.474996 0.33526599 2.4109361
1.495043 0.33070499 2.4149301
1.442914 0.34596199 2.413115
1.455478 0.345384 2.418833
1.460079 0.345882 2.411026
1.4760559 0.3473978 2.4145122
1.483853 0.34392551 2.4129155
1.337381 0.35960799 2.4178741
1.359782 0.35618699 2.419966
1.373988 0.356433 2.4166989
1.386641 0.35755399 2.417985
1.404284 0.35644299 2.413784
1.416876 0.355625 2.4155064
1.4330189 0.3559705 2.4126415
1.4433895 0.35352701 2.4142745
1.453843 0.35442799 2.4170799
1.467384 0.35555601 2.4153941
1.4729424 0.35570699 2.4159441
1.314258 0.36277401 2.415168
1.329877 0.36948201 2.418057
1.346882 0.36408502 2.4153285
1.359735 0.36498699 2.418081
1.36084 0.36693501 2.411211
1.400085 0.36786199 2.412683
1.444159 0.36952001 2.418386
1.456449 0.36196199 2.4198611
1.4672511 0.36561751 2.4140444
1.308784 0.37722999 2.413141
1.323617 0.37574601 2.411288
1.3502491 0.37909901 2.4197879
1.374467 0.37263399 2.4148829
1.403429 0.37911701 2.417659
1.4218889 0.37956101 2.4135289
1.434409 0.37856799 2.411047
1.446372 0.37904501 2.4179885
1.458981 0.37870201 2.419946
1.464515 0.37179601 2.412405
1.296139 0.38553199 2.4140251
1.3150865 0.38697949 2.4161406
1.320858 0.386408 2.4101651
1.342434 0.386646 2.411515
1.357465 0.38543099 2.413554
1.364484 0.38171199 2.419179
1.3751709 0.38131499 2.417129
1.391314 0.38283399 2.415375
1.406 0.38498399 2.4122889
1.413677 0.387216 2.4162719
1.4311415 0.38482851 2.4151258
1.4550321 0.38423049 2.4142675
1.292308 0.39906099 2.4141641
1.3155415 0.3971175 2.4142199
1.367882 0.39610201 2.4147661
1.375023 0.39523399 2.4148681
1.4232121 0.39682299 2.4132791
1.436227 0.39416301 2.41379
1.44528 0.397163 2.414659
1.290114 0.40960601 2.416791
1.307745 0.40596849 2.4130969
1.359362 0.406167 2.4161899
1.366536 0.40294501 2.4148769
1.3926916 0.4050355 2.4146285
1.405314 0.403808 2.4195402
1.418929 0.404726 2.419385
1.4348946 0.40195 2.4145489
1.269032 0.414877 2.415359
1.274907 0.41260701 2.410418
1.282043 0.41901699 2.415576
1.2976155 0.415797 2.413105
1.307423 0.41381249 2.4151335
1.319515 0.41596499 2.411231
1.3832519 0.418134 2.4140282
1.4050705 0.41812152 2.4158859
1.426095 0.41028601 2.4138291
1.44926 0.419236 2.4111691
1.4514149 0.418367 2.4138889
1.274332 0.425964 2.4102659
1.2840185 0.42543149 2.4162791
1.293414 0.42534399 2.4143929
1.300488 0.42418501 2.4175889
1.316393 0.42815399 2.4158311
1.32561 0.42282799 2.415818
1.374694 0.42839301 2.419482
1.393541 0.428918 2.4136429
1.411499 0.42414901 2.4150479
1.429979 0.426478 2.4160719
1.4477561 0.42047501 2.414613
1.4529949 0.42570201 2.418978
1.46226 0.420035 2.4133949
1.2553484 0.43484998 2.4139986
1.28004 0.43594399 2.4155221
1.291886 0.431701 2.4118741
1.384704 0.43191552 2.4125371
1.394255 0.43114299 2.41856
1.441064 0.43400401 2.4123831
1.2377834 0.44478053 2.4135876
1.245209 0.443973 2.4199359
1.2539206 0.44114751 2.4162116
1.2642111 0.441587 2.4124241
1.272603 0.44473499 2.4195869
1.2833281 0.44162399 2.4192369
1.3012885 0.44633901 2.4151959
1.249391 0.45036101 2.4136419
1.2660885 0.4533805 2.4145288
1.282819 0.45792201 2.4152629
1.220866 0.467531 2.412478
1.23242 0.46477652 2.4126225
1.257139 0.464845 2.4101789
1.203745 0.47741401 2.4130509
1.2152687 0.47508466 2.4152677
1.2261831 0.471394 2.4180601
1.239247 0.47092 2.4163871
1.2551187 0.47270134 2.4142883
1.1991121 0.488666 2.415688
1.223312 0.48626399 2.4162109
1.239255 0.48001099 2.4172399
1.247689 0.48230699 2.419884
1.1941905 0.492035 2.4130864
1.208154 0.49749801 2.4156301
1.221787 0.498548 2.41324
1.18538 0.50672948 2.4156671
1.192932 0.50608701 2.4153359
1.208472 0.50847101 2.4155569
1.2258519 0.50890368 2.4154377
1.2679405 0.50231695 2.4123878
1.283311 0.50262451 2.417011
1.179809 0.51555902 2.4125309
1.193603 0.51541001 2.4144831
1.273993 0.51626498 2.4106181
1.163027 0.52520198 2.41008
1.178376 0.52454603 2.413599
1.18643 0.524575 2.4173231
1.191045 0.52456599 2.413075
1.205362 0.52727199 2.410418
1.211753 0.52869302 2.4173169
1.2276109 0.52006298 2.417547
1.2355754 0.52239096 2.4181955
1.164124 0.53426099 2.4117379
1.176651 0.53176898 2.412066
1.185881 0.53703046 2.4137375
1.197968 0.53723699 2.4175651
1.2218125 0.5381695 2.4173636
1.24435 0.53823298 2.4133101
1.1754169 0.542651 2.4118919
1.210361 0.54770201 2.414058
1.224389 0.54104799 2.414736
1.236573 0.54844302 2.419157
1.240962 0.549761 2.4138291
1.267585 0.54151899 2.410105
1.16978 0.555112 2.414237
1.1777281 0.55725801 2.4199381
1.181363 0.55429602 2.4145651
1.2058251 0.55920148 2.415683
1.2132974 0.55527133 2.4156122
1.225166 0.55769902 2.4172499
1.243799 0.55847001 2.4173639
1.167462 0.56549102 2.4114261
1.176042 0.56342399 2.4193499
1.182707 0.56584704 2.4124532
1.2035301 0.56680602 2.4157109
1.214287 0.567563 2.4185309
1.2264659 0.56522 2.4162452
1.2403491 0.56467801 2.4170549
1.2581919 0.56473899 2.411201
1.165808 0.57289398 2.4118021
1.1784821 0.575661 2.412483
1.187291 0.57763898 2.4192619
1.1953709 0.57301301 2.415916
1.2000771 0.57754803 2.4175601
1.227573 0.57419598 2.4195869
1.261289 0.57506502 2.419821
1.165013 0.58245498 2.410742
1.175879 0.58374548 2.4133339
1.185948 0.58393002 2.4171281
1.1977429 0.58621597 2.4157953
1.206628 0.58014101 2.4186029
1.213411 0.58161497 2.4140069
1.224543 0.58702701 2.4164929
1.235327 0.58613902 2.4153194
1.175627 0.59472001 2.4150951
1.184239 0.595761 2.416095
1.197843 0.59665298 2.4142239
1.2057549 0.59533304 2.4160292
1.228538 0.59032297 2.414783
1.172531 0.60618299 2.4128561
1.18179 0.60648698 2.413785
1.197273 0.6062665 2.4145398
1.2134321 0.609155 2.4136529
1.220855 0.603284 2.417069
1.1809779 0.61626202 2.4121959
1.1959341 0.61834902 2.4135001
1.208619 0.61809349 2.4147625
1.174215 0.623528 2.412307
1.1847041 0.62559545 2.412883
1.203933 0.624529 2.4107981
