# .PCD v0.7 - Point Cloud Data file format
VERSION 0.7
FIELDS x y z
SIZE 4 4 4
TYPE F F F
COUNT 1 1 1
WIDTH 1328
HEIGHT 1
VIEWPOINT 0 0 0 1 0 0 0
POINTS 1328
DATA ascii
-0.063809447 0.1290991 0.7250284
-0.034823883 0.1281759 0.70273167
-0.034517888 0.11722939 0.705522
-0.034348302 0.12398262 0.72549009
-0.0080590732 0.1059866 0.7104522
-0.015402291 0.12494436 0.7244913
-0.0066428292 0.12420178 0.72491205
0.032154489 0.10844124 0.63840061
-0.048152208 0.1171623 0.70968997
-0.044451017 0.11339036 0.70951605
-0.026249956 0.13205065 0.69897217
-0.023930041 0.128985 0.70123959
-0.024541769 0.13518696 0.72646296
-0.016903246 0.13208961 0.7251128
-0.0089958906 0.13115543 0.72251534
-0.070370376 0.14250739 0.72487909
-0.0575702 0.15048592 0.71157724
-0.055254485 0.14452979 0.72540313
-0.037189778 0.12199901 0.70981759
-0.035264142 0.14261714 0.72249061
-0.02787523 0.14103758 0.72247237
-0.06825313 0.15045589 0.72829872
-0.056918364 0.15191276 0.72102356
-0.049804449 0.15031232 0.72132581
-0.027482722 -0.12354514 0.73748684
-0.014618382 -0.12099206 0.73062217
-0.014260656 -0.055023417 0.68154693
-0.024607114 -0.11372397 0.73598671
-0.013179826 -0.09818428 0.73045969
-0.033653945 -0.10487568 0.7312659
-0.016905284 -0.097767346 0.72621566
-0.0083425017 -0.10763475 0.72053373
-0.0054171272 -0.10621275 0.73434186
0.0026766658 -0.10059237 0.73184782
-0.030592144 -0.094308786 0.73581374
-0.023486752 -0.09478192 0.73394519
-0.0086919088 -0.054989394 0.6911087
-0.0047807815 -0.094797641 0.73662835
0.0040423684 -0.094295941 0.73358184
-0.023497552 -0.084510773 0.73687476
-0.0065735602 -0.058049768 0.71156263
-0.010436899 -0.061220441 0.71113163
0.0044433563 -0.084296428 0.73533839
0.011799644 -0.081799157 0.73251706
-0.014281157 -0.075613514 0.73655963
-0.0041681794 -0.074537687 0.73444653
6.3761449e-06 -0.047687311 0.69813037
0.013093084 -0.074318528 0.73517597
-0.013093139 -0.065131962 0.73608106
-0.0034950867 -0.066098563 0.73536932
0.0037040636 -0.065681621 0.73391914
0.013360573 -0.064935498 0.7343576
0.021165609 -0.061658561 0.73016322
-0.0040838495 -0.055692706 0.73547369
0.0042157234 -0.054761715 0.73494875
0.015439047 -0.054035544 0.73495287
0.020529658 -0.051178761 0.73537934
-0.0050320132 -0.043975122 0.73547399
0.026692828 -0.024933919 0.69050372
0.014860743 -0.045093175 0.73430353
0.021245599 -0.042258959 0.73363662
0.027327901 -0.031919628 0.70047283
0.021499025 -0.022799442 0.71307254
0.015884446 -0.03415826 0.73404634
0.022556841 -0.035502683 0.73487127
-0.0027710916 -0.025538916 0.7349484
0.021093253 -0.038362943 0.70890695
0.014410268 -0.023765638 0.73387903
0.022398598 -0.022828929 0.73359805
-0.0026035667 -0.016145054 0.73759401
0.020854324 -0.0073390859 0.71311986
0.019978922 -0.0052837017 0.71870232
0.022182943 -0.015152792 0.73502314
0.037473638 -0.033300892 0.68670857
0.015678547 -0.017092673 0.71355212
0.014451151 -0.0037863962 0.73498887
0.025711786 0.0013728875 0.72767043
-0.0019533187 0.0067033069 0.73641527
0.0045509459 0.0056391205 0.73531044
0.027264269 0.002458513 0.7143181
0.022981124 0.0058206446 0.73443305
-0.002325942 0.015360951 0.73857802
0.015310132 -0.0054914295 0.7034139
0.013229704 0.014309776 0.73315698
0.027860722 0.0061241784 0.72467387
0.0031746398 -0.012648874 0.69929552
0.0064608888 0.0052358038 0.70834523
0.013883826 0.02664662 0.73447317
0.02300155 0.024697203 0.73428535
-0.0030499399 0.035404451 0.73646718
0.005791069 0.034828696 0.73597097
0.026484454 0.013660147 0.71022278
0.022177598 0.037450444 0.73465872
-0.0039210995 0.045332428 0.73627657
0.018793549 0.026737468 0.70213181
0.014462473 0.044148557 0.73464876
0.020325599 0.067425281 0.71389127
-0.0043107206 0.054274518 0.73499268
0.0057929894 0.06346897 0.72490019
0.016377682 0.054762557 0.73419923
0.023291469 0.053991377 0.73175168
-0.011519082 0.065089755 0.73732471
-0.0044590845 0.06547863 0.73545647
0.024773879 0.062918797 0.70681983
0.015358033 0.064768702 0.73410231
0.020650744 0.063452646 0.73532796
-0.013463765 0.076132365 0.73451746
0.0022438427 0.085852161 0.70813334
0.0041087293 0.07363192 0.73364985
0.013897931 0.076109141 0.7347939
0.020682573 0.070287496 0.7309798
-0.020762766 0.08498355 0.73660189
-0.014644833 0.085937992 0.73695862
-0.0041240337 0.084929191 0.7340768
0.006321718 0.08646147 0.73101676
0.022297993 0.08650174 0.7138288
-0.031369582 0.099172115 0.73913485
-0.021802319 0.096161336 0.73540175
-0.014792097 0.09537641 0.735811
0.0015141815 0.10435166 0.70954239
0.0052164868 0.095241934 0.7352255
-0.032909434 0.10649178 0.73609436
-0.026619714 0.1060266 0.73602724
0.013308025 0.093145266 0.69621181
-0.0056151999 0.10517213 0.73414576
0.0034928955 0.10533588 0.73151863
-0.054392826 0.11875508 0.73579246
-0.042821564 0.11560182 0.73432845
-0.034667484 0.11283816 0.7347914
-0.02194513 0.10757879 0.73445076
-0.015925031 0.11628974 0.73402637
-0.0066414759 0.11264937 0.73719233
0.00031292439 0.11360946 0.73219264
-0.073385857 0.12962124 0.73443788
-0.065885782 0.12646577 0.73575032
-0.054289021 0.12394218 0.73526943
-0.045251954 0.12360761 0.73445296
-0.018611617 0.12508415 0.7126804
-0.026628986 0.13396214 0.70922583
-0.016348494 0.12363931 0.73690879
-0.074864075 0.13349396 0.73533541
-0.035821855 0.12892096 0.70336556
-0.052696969 0.12788774 0.73289877
-0.035312369 0.11766602 0.71931523
-0.034942191 0.13521889 0.7346158
-0.026308561 0.13302195 0.73503006
-0.039987966 0.1378987 0.70000994
-0.064360186 0.14338207 0.73589683
-0.055918574 0.14455846 0.73474801
-0.045334231 0.14288235 0.73381191
-0.039091855 0.14159341 0.7316404
-0.034176402 -0.11254594 0.74558461
-0.024193224 -0.11328828 0.74533045
-0.0098233102 -0.061860193 0.72356468
-0.010457101 -0.056106724 0.69648105
-0.02471271 -0.10485306 0.74514365
-0.016044075 -0.10456864 0.74478793
0.0074704168 -0.070203505 0.72304231
-0.023974143 -0.095453657 0.74657583
-0.015105535 -0.094728813 0.74433744
-0.0053605498 -0.095404677 0.74421763
0.028268065 -0.080128178 0.69293272
-0.032787453 -0.088679619 0.74746442
-0.025639184 -0.083598837 0.7471993
-0.017185809 -0.065524831 0.7255832
-0.0042359265 -0.085456461 0.74495786
0.003677547 -0.085965537 0.74190843
-0.022888511 -0.077733263 0.74731928
0.0082873655 -0.07659547 0.71616036
-0.0069008777 -0.072881356 0.74447507
-0.0031069051 -0.05361316 0.73517913
0.010033488 -0.070175231 0.7439881
-0.020472303 -0.067791522 0.74676073
-0.015100921 -0.066923209 0.74546683
0.0081801182 -0.021810101 0.70751595
0.0056854752 -0.064148076 0.74420148
0.049334176 0.010818221 0.68117911
-0.012360933 -0.055420514 0.74426782
0.0058987015 -0.041541532 0.72668689
0.0053189769 -0.052742403 0.74481314
0.01287353 -0.053674139 0.74394047
-0.011190861 -0.043354642 0.74530602
-0.0052878777 -0.044401187 0.74484366
0.01913617 -0.037189733 0.72477525
0.021001594 -0.042975999 0.73025322
-0.011831604 -0.036738504 0.74711025
-0.0055281552 -0.035494968 0.74492645
0.0081646014 -0.02432037 0.73469537
0.014453513 -0.035964713 0.74593824
-0.0047949576 -0.026110649 0.74585766
0.019988516 -0.024068898 0.72495538
0.013482313 -0.024139576 0.74557745
-0.0024423897 0.028823815 0.71374309
-0.011574253 -0.015986785 0.74921924
0.011862313 -0.025823386 0.72522354
0.003928992 -0.015215297 0.74506861
0.014920797 -0.014967461 0.74438834
0.021658093 -0.015630677 0.74187875
-0.0039992519 -0.0058753388 0.74481988
0.018654894 -0.00095890247 0.72620022
0.014629505 -0.0065976782 0.74584073
0.021720946 -0.0025189519 0.74185365
-0.011014134 0.001070559 0.74831808
-0.0036111455 0.0065223202 0.7451036
0.0038407457 0.0044517377 0.74446654
0.0152887 0.0051207896 0.74565333
-0.011102974 0.016443133 0.74786198
0.0017827875 -0.014840571 0.71278447
0.023351938 0.0153622 0.72242928
0.014710594 0.015737224 0.7445032
0.022339165 0.012326926 0.74073434
-0.0034846761 0.02357449 0.74483424
0.015865197 0.023590859 0.72859585
0.015631566 0.024181914 0.74576813
0.022062004 0.027798206 0.7402488
-0.011335686 0.03068532 0.74727535
0.0025138892 0.045362912 0.72844642
0.0039406274 0.034297477 0.74476677
0.014026254 0.03553538 0.74443209
-0.013284564 0.045152843 0.74724507
-0.0052662706 0.046164315 0.74524522
0.0040602409 0.045543347 0.74446875
0.014526983 0.04586846 0.74466932
0.02743707 0.060093347 0.6995604
-0.0055528088 0.056922588 0.74441588
0.0043244292 0.056132913 0.74363571
0.013354071 0.053782467 0.74660462
-0.012785795 0.064573482 0.74588203
0.0017559397 0.078657836 0.71514285
0.0044333558 0.063511543 0.74475271
0.012575553 0.064214744 0.74401784
-0.021876708 0.075698242 0.7470727
0.0028917391 0.06613645 0.72174925
-0.0059677144 0.074707069 0.74523008
0.0049954937 0.076005965 0.74326479
0.011194646 0.072217867 0.74665481
-0.022711489 0.084643669 0.74594522
-0.014368045 0.085050389 0.74411732
0.0057121394 0.072025865 0.72865206
0.0051981285 0.084570773 0.74547768
-0.031456843 0.097036764 0.74800903
-0.010644658 0.075334236 0.72448277
-9.0071066e-05 0.08407364 0.70172226
-0.0055512264 0.093920931 0.74446523
0.001605949 0.094980069 0.74405175
-0.042707969 0.10725635 0.7473408
-0.029795466 0.077125803 0.72350049
-0.02326346 0.10187779 0.74303949
-0.019199064 0.12693112 0.70163453
-0.0057352511 0.10543541 0.74415815
-0.064957157 0.11937375 0.7443707
-0.053490017 0.11680885 0.744775
-0.038047258 0.12228106 0.72804004
-0.012731377 0.12418828 0.70827764
-0.010850101 0.099781081 0.72466785
0.00072844006 0.12516525 0.71334159
-0.0080768764 0.11141569 0.74239379
-0.073309109 0.12781873 0.74325216
-0.064978197 0.12412135 0.74491429
-0.036045581 0.11756873 0.72682089
-0.024172347 0.11678891 0.71799225
-0.023518765 0.11370068 0.73271185
0.0039791763 0.11673641 0.71459723
-0.019012542 0.12268955 0.74248075
-0.082264751 0.13118523 0.74061733
-0.073964745 0.13502009 0.74391007
-0.031414337 0.12222738 0.70551682
-0.046136625 0.1155969 0.73183042
-0.04474796 0.13381712 0.74453324
-0.034892172 0.13217951 0.74150431
-0.029848948 0.13036746 0.74321854
-0.071156837 0.14257228 0.74657106
-0.054672249 0.15340079 0.71642274
-0.048875958 0.15838614 0.68089962
-0.048672669 0.14007288 0.74029917
-0.033601046 -0.11510589 0.75315893
-0.019960821 -0.11010955 0.75226057
-0.04233703 -0.10858822 0.75582582
-0.034817625 -0.10442866 0.75549984
-0.021358833 -0.08423394 0.74597454
-0.016755583 -0.10185118 0.75412571
-0.031599227 -0.097026259 0.75620455
-0.02257053 -0.094074041 0.75488633
-0.011972658 -0.085506029 0.74725354
-0.0089381719 -0.093839206 0.75293773
0.017301321 -0.070567854 0.70125133
-0.01398471 -0.09412913 0.73612672
-0.016465109 -0.062419899 0.72354561
0.0028798184 -0.084371485 0.74351341
-0.030312955 -0.074864328 0.75763357
-0.024733445 -0.076189108 0.75543046
-0.0020831244 -0.04129459 0.71758461
-0.0048172381 -0.075258575 0.75569183
-0.01159588 -0.031807303 0.73240644
-0.022472786 -0.064982221 0.75367111
-0.01521945 -0.066110723 0.75472397
-0.0065083746 -0.065461606 0.75480121
0.0035075343 -0.065821834 0.75479323
-0.021603594 -0.055390853 0.75733453
-0.014944865 -0.055520672 0.7555576
-0.0034330396 -0.033251129 0.73164284
0.0099185919 -0.045132417 0.74541694
0.011738002 -0.056036919 0.75034308
0.0050937533 -0.048573188 0.7290774
0.0072174682 -0.035683401 0.73839241
0.0052748076 -0.044816408 0.75636154
0.012794763 -0.044335097 0.75263661
-0.0131954 -0.034649763 0.75499785
0.010154026 -0.024002578 0.73450816
0.0040613278 -0.035634086 0.7539891
0.019148128 -0.036982141 0.73795474
-0.012708683 -0.02434483 0.75707322
-0.0039290413 -0.025581291 0.75491291
0.0050472869 -0.024639022 0.75579137
0.012386873 -0.02415677 0.75261271
-0.012365942 -0.013781252 0.75623804
-0.0056673726 -0.015960645 0.75543779
0.0036973748 -0.014535907 0.75611717
0.012474805 0.0063612461 0.74118495
-0.012524508 -0.0043104552 0.75633132
0.0080011971 -0.0051323315 0.74162537
0.026878966 -0.0041571022 0.72548264
0.014027433 -0.0043628216 0.75347805
-0.0034291996 -0.025491998 0.72241104
-0.0054446966 0.006344161 0.75627935
0.0044442648 0.0043577901 0.75621831
0.027451871 0.010055749 0.73330659
-0.012018494 0.01668234 0.75642282
-0.0035994167 0.014445443 0.75581259
0.0046416456 0.016363489 0.75620449
0.014467043 0.013802041 0.75334245
0.010729562 0.054167259 0.70859593
-0.0051481994 0.02445643 0.7559492
0.014869357 0.01193381 0.73946083
0.012483654 0.025355905 0.75310796
-0.013990435 0.035260431 0.75634336
-0.0035687783 0.020724747 0.73637176
0.0060802586 0.03598167 0.75487798
0.022140598 0.023011789 0.74022806
-0.013537797 0.045280717 0.75523227
-0.0048373668 0.044966061 0.75596023
0.013940451 0.067150138 0.71773618
0.011824036 0.046130203 0.75280505
-0.021536052 0.051202863 0.75836056
0.007936256 0.060946029 0.72467351
-0.0046258103 0.038496833 0.73286039
0.006438693 0.053426936 0.75498909
0.011185169 0.055378109 0.75005317
0.037037011 0.040576808 0.68633443
-0.014483488 0.064734325 0.75489932
0.0029361504 0.063485555 0.74156529
0.00459459 0.065876909 0.75524241
0.014787599 0.0956145 0.70271474
-0.023208609 0.074941352 0.75556213
-0.015402372 0.073574893 0.75483239
0.02527188 0.05233385 0.71524876
0.0031970453 0.074945353 0.75427812
0.032127708 0.0040968903 0.66274804
-0.025580266 0.085048951 0.75500178
-0.01154168 0.093254328 0.73539442
-0.0037916682 0.085648149 0.75509828
0.0020364597 0.082336515 0.75301278
-0.0038004406 -0.067077391 0.6132257
-0.034114931 0.095853701 0.75475353
-0.025076004 0.095628552 0.75376713
-0.0089199152 0.065644503 0.73237485
-0.0069052 0.094064757 0.75558889
0.019159205 0.16103446 0.60961843
-0.045113549 0.10580673 0.75644475
-0.02752701 0.11479092 0.72966456
-0.014647653 0.10807872 0.73667145
-0.014840371 0.10637986 0.75433135
-0.0086371899 0.10052541 0.75133401
-0.072443262 0.11925115 0.7556597
-0.012190449 0.11669767 0.69489086
-0.056240045 0.11523387 0.75465131
-0.021039678 0.11593028 0.7215541
-0.024485581 0.11190418 0.74263138
-0.024235487 0.11423721 0.7555601
-0.017925149 0.11339372 0.75317234
0.028486684 0.10090365 0.65699297
-0.065342799 0.12360161 0.75627428
-0.055469546 0.1241319 0.75576812
-0.019157464 0.080281086 0.71248102
-0.035554752 0.12289044 0.75554347
-0.027138196 0.12152527 0.75497431
-0.021899015 0.10650891 0.69624996
-0.054455034 0.13519061 0.73070902
-0.052985754 0.12752801 0.73514354
-0.047370754 0.1132016 0.73872793
-0.045293771 0.13168408 0.75384581
-0.037079357 0.13020763 0.75243324
-0.077079125 0.14162299 0.7521075
-0.064591862 0.14124392 0.75338012
-0.054674268 0.14082062 0.75020063
-0.029491544 -0.11181176 0.76101696
-0.034053672 -0.10801201 0.76183856
-0.025273398 -0.10355762 0.76416349
-0.037682004 -0.065931365 0.73579735
-0.024563009 -0.093930781 0.76457691
-0.010228226 -0.076957129 0.75114226
-0.031481437 -0.088948205 0.7649551
-0.016631812 -0.09104681 0.74851215
-0.014834374 -0.085318305 0.76554036
-0.0091243684 -0.085436761 0.76648581
-0.034144837 -0.075412855 0.76505232
-0.0065870718 -0.074122936 0.74132305
-0.015783232 -0.074357778 0.76440787
-0.0015606149 -0.075319603 0.75543076
-0.031135045 -0.069291122 0.76239997
-0.024122678 -0.066193037 0.76494265
-0.0078203743 -0.036470439 0.7303651
-0.001904287 -0.046481233 0.75480449
-0.02395495 -0.05526958 0.76538521
-0.002669652 -0.053458743 0.74956846
-0.0056974785 -0.054740254 0.76496762
0.0027877211 -0.055940885 0.7650016
-0.021400422 -0.045443732 0.76503706
-0.011514635 -0.02993579 0.74856412
0.0059168735 -0.0098618912 0.73098046
0.010072724 -0.028959977 0.75066984
-0.020455489 -0.036544155 0.76709342
0.0059796688 -0.046913229 0.73443872
0.017124878 -0.021007651 0.73133564
0.011452004 -0.036021352 0.75182885
-0.020604819 -0.026343316 0.76859421
-0.014796728 -0.026020853 0.76563227
0.024591926 -0.023481701 0.71626443
0.0062077306 -0.025909239 0.76577085
0.010604441 -0.020674944 0.76033735
-0.014363972 -0.014959455 0.76505357
0.017057741 -0.0085949199 0.73306853
0.0053505255 -0.013768256 0.76679093
0.011378045 -0.013472646 0.76339799
-0.014871742 -0.0058294036 0.76608318
0.026366089 -0.015167232 0.71769208
0.0048029874 0.012739797 0.75089228
0.01101355 -0.0047152638 0.76283342
-0.014408472 0.0050788913 0.76472491
-0.0050694877 0.0039857468 0.76543295
0.0054145851 0.0063001974 0.76569432
0.011664784 0.0059297532 0.76442611
-0.014318015 0.016047364 0.76419622
0.025539882 -0.0067836903 0.71263528
0.017500447 0.024617128 0.74769765
-0.01433831 0.024564441 0.76544964
0.0026292675 0.0089934831 0.73994094
0.0045326636 0.024361275 0.76537305
0.012032628 0.022649014 0.76200515
-0.021154761 0.036717683 0.76657784
-0.015330657 0.034894612 0.76647574
0.012599484 0.041497931 0.72977972
0.005784051 0.034758981 0.76515102
0.010081291 0.038145602 0.76452589
-0.022997281 0.049382251 0.76865691
-0.014682782 0.045620259 0.7656759
-0.0061791041 0.0440601 0.7647382
0.013261691 0.031861484 0.75137532
0.010238588 0.044277102 0.7616123
-0.02253356 0.055369209 0.76410002
-0.015055483 0.055115245 0.76570964
0.027920274 0.047087781 0.7187115
0.0030054986 0.052738786 0.76617002
-0.024537863 0.06533926 0.76384431
-0.015034274 0.064197436 0.7648623
-0.005163596 0.06492047 0.76525474
0.0015333127 0.066390514 0.7648052
-0.032697123 0.075497515 0.76662517
-0.024738811 0.075156383 0.7653538
-0.0010807108 0.07516817 0.73125768
-0.0054988088 0.07571052 0.76527929
0.00047361851 0.078218579 0.7633276
-0.033170741 0.083826996 0.76566678
-0.025019599 0.085793741 0.76466715
-0.010121569 0.050379738 0.73848432
-0.0061472738 0.094036952 0.7505554
-0.033837594 0.060347036 0.73280531
-0.030786157 0.10241121 0.74413079
-0.019265445 0.10000103 0.75138378
-0.015021768 0.094547607 0.76504302
-0.0089288652 0.091262907 0.76500785
-0.042981911 0.11398095 0.74223185
-0.04335425 0.10456046 0.76078784
-0.017375963 0.10045266 0.74408567
-0.025936181 0.10418565 0.76497805
-0.01696806 0.10437259 0.76408029
-0.072625771 0.11750772 0.76338768
-0.043679256 0.11556407 0.74190867
-0.053765435 0.11442059 0.76661259
-0.026123585 0.11102279 0.72857976
-0.026752552 0.095000662 0.74378073
-0.025641186 0.11307895 0.76393044
-0.083367676 0.12955832 0.76694977
-0.048440386 0.1206215 0.74026459
-0.06555941 0.12508006 0.7665273
-0.017184664 0.094416909 0.71078676
-0.045386765 0.12645476 0.76279968
-0.035383701 0.12119076 0.76177484
-0.082315959 0.13483191 0.76460147
-0.071110249 0.13798039 0.75041288
-0.065716833 0.13359405 0.76452941
-0.056845997 0.1328385 0.76378506
-0.047168911 0.13327427 0.76018834
-0.077609032 0.1407674 0.76304936
-0.066470325 0.14036928 0.76158655
-0.034884945 -0.093452662 0.77498716
-0.024278769 -0.094370596 0.77372831
-0.019144714 -0.092706725 0.7719596
-0.020004742 -0.058777738 0.74536109
-0.025626106 -0.084739737 0.77610576
-0.016845938 -0.084121048 0.77372974
-0.042229611 -0.078306764 0.77538747
-0.034172464 -0.074833564 0.77647346
-0.025707455 -0.07502266 0.77545625
-0.014050256 -0.076099783 0.77616256
-0.0088316547 -0.074653588 0.77322817
-0.03347294 -0.065703504 0.77530468
-0.024759792 -0.065485857 0.77554107
-0.0021424659 -0.04477432 0.75426173
-0.0067003137 -0.064365983 0.77358443
-0.031797297 -0.057781126 0.77731514
-0.012678955 -0.059975762 0.75706863
0.00043731232 -0.042468555 0.74916482
-0.0067179203 -0.054286812 0.77692038
0.0013972074 -0.052495837 0.77199042
-0.024174938 -0.044062424 0.77511984
-0.015952986 -0.045823641 0.7749052
-0.0039451723 -0.046267219 0.77282977
0.00043514371 -0.043477371 0.77748179
-0.023003729 -0.036195785 0.77768528
-0.014231652 -0.033594288 0.77464586
-0.0074158977 -0.023491958 0.77134758
0.0024747401 -0.034718134 0.77402484
-0.021746168 -0.025769433 0.77425569
-0.014396254 -0.024503559 0.77437127
0.005977598 -0.022049263 0.75823539
0.0035315629 -0.024122322 0.77318186
-0.020889178 -0.015389495 0.77393734
-0.013349116 -0.015561223 0.77409953
-0.0058631338 -0.015903037 0.77489012
0.0030555904 -0.015533706 0.77503842
-0.02131623 -0.0066542998 0.7757293
-0.01024584 -0.01922912 0.75450122
-0.0056431834 -0.0052715978 0.77526301
0.0033907294 -0.0049088434 0.77625811
-0.020970225 0.0077378005 0.77554506
-0.014007825 0.0062248604 0.77327037
0.016879253 -0.0047999066 0.74111563
0.0041056331 0.0040781889 0.77497101
-0.021056175 0.018952236 0.77665251
-0.0018486164 0.030743878 0.74597573
-0.0055421134 0.014157614 0.77550954
0.0030778348 0.014800471 0.77490395
-0.020875335 0.024625871 0.77450061
-0.014061227 0.023717621 0.77457041
-0.0062032999 0.024116164 0.77428871
0.0038102567 0.024339026 0.77515751
-0.022547973 0.03592423 0.77640522
-0.015385267 0.035238333 0.77416617
-0.006137087 0.033852812 0.77538735
0.0023422737 0.034369566 0.77420181
0.0060909567 0.052208655 0.73838657
-0.011878967 0.041508649 0.76997298
-0.0043503614 0.045769904 0.77512068
0.0023484945 0.043286007 0.77566689
-0.024646802 0.05560689 0.77560389
-0.014509736 0.054434862 0.77493602
0.0047319815 0.041234381 0.75769567
0.0012173057 0.055506703 0.77279264
-0.03139586 0.065785497 0.77410281
-0.0097832046 0.059471339 0.75703222
-0.010395926 0.077750616 0.74584365
-0.0045177191 0.062977947 0.77553838
0.00085993484 0.061676726 0.771312
-0.012597513 0.052725267 0.7440818
-0.0088061737 0.061555427 0.75303847
-0.014549017 0.07458438 0.77404505
-0.0068129301 0.074615434 0.77493918
-0.041793443 0.085987687 0.77576351
-0.033980295 0.086043969 0.77596319
-0.026470611 0.084883288 0.77547741
-0.015299045 0.08554925 0.77603626
-0.0096537918 0.081985727 0.77141702
-0.052821837 0.097795911 0.77445573
-0.045266289 0.095042452 0.77499628
-0.033440515 0.094646677 0.77633768
-0.019948767 0.070904471 0.74242538
-0.015902609 0.094153523 0.77305686
-0.063329615 0.10662864 0.77524
-0.054652873 0.1056459 0.77365488
-0.045594692 0.10502096 0.77629405
-0.036316764 0.10435247 0.77452576
-0.024627758 0.10426542 0.77372688
-0.070648834 0.11336417 0.77461731
-0.063736655 0.11561783 0.77408773
-0.027149163 0.10677911 0.73601764
-0.044718564 0.11529265 0.77419174
-0.035741467 0.11370667 0.77575928
-0.08399757 0.1277035 0.77454716
-0.054185748 0.12976666 0.74873674
-0.063655294 0.12421617 0.77460277
-0.055570774 0.12548611 0.77464312
-0.040486492 0.1389879 0.71406043
-0.039696604 0.12066346 0.77034354
-0.08385136 0.13230032 0.77240628
-0.075577185 0.13289113 0.7742945
-0.067132391 0.13165751 0.77568763
-0.058122147 0.13187097 0.77332091
-0.041287214 -0.092867613 0.78753084
-0.034113541 -0.094322756 0.78277731
-0.023972094 -0.09184511 0.78271502
-0.041704308 -0.085681036 0.78699243
-0.034593679 -0.084423989 0.78548819
-0.011560861 -0.084773101 0.75873381
-0.014590561 -0.080895096 0.78065747
-0.044411965 -0.075205326 0.78589135
-0.022037746 -0.062243164 0.76679504
-0.02706326 -0.074114762 0.78509277
-0.0098132081 -0.075367138 0.77098006
-0.042416558 -0.068887591 0.78392404
-0.035669371 -0.065281332 0.78664601
-0.027756115 -0.052320551 0.78009868
-0.014324698 -0.06472455 0.7854476
-0.0085760355 -0.064465776 0.78175998
-0.033586144 -0.056818113 0.78595138
-0.029005822 -0.033913441 0.76097649
-0.014497781 -0.054705285 0.78399599
-0.0044220965 -0.021864681 0.7610206
-0.031726677 -0.046335533 0.7865752
-0.001879009 -0.046993636 0.75166982
-0.003468364 -0.037923794 0.76378518
0.0021381767 -0.035119846 0.77175897
0.00093108416 -0.040197015 0.78040117
-0.024977911 -0.035333268 0.78598946
0.0011113132 -0.025909526 0.74803156
-0.005713257 -0.033475474 0.78564435
0.0010214001 -0.03534317 0.78006172
-0.021150894 -0.042469736 0.75839287
-0.014854627 -0.026057463 0.78414923
-0.0050490312 -0.024971234 0.78478891
0.022717891 -0.033507388 0.74702108
-0.023172215 -0.016109621 0.78587025
-0.00046385737 -0.0086963549 0.7652418
-0.0042230524 -0.015528034 0.78700316
0.0030242056 -0.013837934 0.78454167
-0.023153484 -0.0045755552 0.78669524
-0.014704354 -0.0046156622 0.78450251
-0.0041065044 -0.0054151095 0.78524059
-0.00022936985 0.04698265 0.72902536
-0.022340041 0.0071413843 0.78519601
-0.014466874 0.0057984246 0.78464609
-0.0056868875 0.0059064231 0.78632921
0.002003324 0.0058445306 0.78328562
-0.0040314309 0.038269605 0.74697214
-0.0144014 0.015874879 0.78527141
-0.00273906 0.015275243 0.78768754
0.00054347515 0.011242986 0.7884922
-0.02285368 0.023604285 0.78548294
-0.014596573 0.024950279 0.78340912
-0.0025920805 0.03970613 0.76485014
0.023604017 0.03851223 0.74339199
-0.0082075614 0.038622987 0.76460201
-0.0150667 0.034671828 0.78543413
-0.0048680818 0.034979481 0.78424507
0.0016828775 0.037325636 0.78290045
-0.031597894 0.047673065 0.78579092
-0.025336154 0.045828201 0.78485721
-0.0018718145 0.035260253 0.7530846
-0.0048779212 0.044595059 0.78610218
0.0054773754 0.04365316 0.74221295
-0.022741148 0.055759422 0.78594089
-0.0090450142 0.040097959 0.76260358
-0.0059728245 0.05511421 0.783705
-0.034046512 0.06504932 0.78580356
-0.026123945 0.0664858 0.78502136
0.0016044542 0.050096132 0.75973475
-0.0086034657 0.06304349 0.78461456
-0.043583751 0.077432156 0.78788042
-0.023662053 0.061464284 0.76888788
-0.023857605 0.062311281 0.77387279
-0.01500236 0.073845431 0.78525269
-0.0078462064 0.070434786 0.78326398
-0.038782079 0.053827386 0.7548002
-0.029515 0.09224306 0.76529932
-0.024562677 0.084324077 0.78414083
-0.016265173 0.084198564 0.78523564
-0.061352544 0.097254619 0.78576112
-0.043428443 0.10349067 0.76530218
-0.044663962 0.095935978 0.78446478
-0.025883079 0.10582261 0.75987667
-0.024508975 0.094162077 0.78577429
-0.072404064 0.10863519 0.78397816
-0.049684051 0.1074058 0.76576412
-0.056278147 0.10549812 0.78569323
-0.034677271 0.10978808 0.75657082
-0.033459127 0.10599341 0.78472984
-0.028346496 0.10127368 0.78414518
-0.0834141 0.11875397 0.78981948
-0.072262384 0.11597286 0.78453773
-0.063048057 0.11614501 0.78578174
-0.03043741 0.092777394 0.75529587
-0.045732871 0.11545393 0.78648692
-0.038443383 0.11337597 0.78363043
-0.081078887 0.12367966 0.78380036
-0.037868977 0.12378576 0.73249501
-0.053705931 0.10549529 0.76841325
-0.056638505 0.12293126 0.78255022
-0.073702209 0.13152683 0.78556013
-0.069665372 0.13003224 0.78084981
-0.047626242 -0.093011737 0.79957026
-0.033181682 -0.090730339 0.79361457
0.029419782 0.007940528 0.66801435
-0.035048287 -0.082985766 0.79472524
-0.015661631 -0.070263505 0.77897018
-0.040708721 -0.077057019 0.7993347
-0.033864267 -0.076211505 0.79529542
-0.024048481 -0.075523578 0.79549491
-0.018932829 -0.072586268 0.79386425
-0.042158917 -0.063892119 0.7970171
-0.022714984 -0.07395342 0.7750926
-0.012977943 -0.055070005 0.77529681
-0.008779305 -0.065136962 0.77885574
-0.036171649 -0.054943573 0.79558545
-0.026598226 -0.040014591 0.77663589
-0.011884481 -0.03949536 0.77713072
-0.0084767835 -0.052939028 0.7949807
-0.031717069 -0.042564809 0.79720974
-0.024542421 -0.044323828 0.79479879
-0.014092534 -0.045212779 0.79471296
-0.0071799061 -0.043763224 0.79319614
-0.024551004 -0.059434764 0.75179332
-0.017306538 -0.014897194 0.76985872
0.034749996 -0.020699888 0.72307688
0.0034805064 -0.021380106 0.77704614
-0.032158196 -0.022710234 0.79965127
-0.010415079 -0.030523935 0.7737242
-0.015668996 -0.024392264 0.79451859
-0.0057116859 -0.024292801 0.79537076
-0.030515373 -0.018715233 0.79908538
-0.024381846 -0.016967675 0.79608977
0.013333915 -0.0051518115 0.75430197
0.011390314 -0.022829095 0.76292789
0.00050282478 -0.011024892 0.79332149
-0.025495151 -0.0054890565 0.79561394
-0.0069616064 -0.013801725 0.77941942
-0.0045359409 -0.006050522 0.79533362
0.0005062322 -0.0043087602 0.79299957
-0.013553762 0.020966938 0.77364987
-0.015241812 0.0059465729 0.79486758
-0.0064671561 0.019071184 0.7822507
0.0012414753 0.0066658407 0.79309803
-0.024046961 0.015598896 0.79508066
0.0010750124 0.00059688732 0.76278347
-0.0042757043 0.013509247 0.79506427
0.0011677146 0.015092388 0.79153192
-0.0092159621 0.027270276 0.7751264
-0.0076198704 0.022557367 0.76633048
-0.0045998562 0.024835387 0.7947945
0.00011283159 0.025736809 0.79131949
-0.032091904 0.034143701 0.79865628
-0.024933744 0.035015352 0.79553777
-0.016282754 0.035844617 0.7935704
0.0037185082 0.039260969 0.77783006
0.00755774 0.035359278 0.74273461
-0.0052678664 0.036760736 0.76858681
-0.0011457155 0.046973269 0.77275246
-0.0068064844 0.045859668 0.79508299
-0.04046917 0.058933377 0.79973137
-0.036642034 0.056303997 0.79914904
-0.011576836 0.044276454 0.77458596
-0.014333972 0.056787204 0.79605907
-0.0079368651 0.055151418 0.79508054
0.024657622 -0.0063557276 0.69035465
-0.034025889 0.064110644 0.79371226
-0.025808247 0.063972503 0.79518294
-0.013566576 0.066300407 0.79574531
-0.0095676184 0.066668361 0.793329
-0.052214339 0.078160852 0.7998544
-0.037268523 0.048814453 0.76711565
-0.026734067 0.090255715 0.75677103
-0.020621657 0.042440422 0.76966691
-0.0027827632 0.049420271 0.76672703
-0.052485172 0.085935935 0.79588789
-0.043897308 0.08609689 0.7957803
-0.026546504 0.090503126 0.77570713
-0.024902025 0.084776878 0.79612279
-0.071591318 0.099824011 0.79986852
-0.06323652 0.096450187 0.79680365
-0.037755929 0.10461974 0.76145411
-0.021613672 0.10244163 0.74235398
-0.035303179 0.094683185 0.79474008
-0.026814118 0.09428826 0.79314989
-0.07267113 0.10554902 0.79464507
-0.039741553 0.11004671 0.76196802
-0.03965563 0.10404103 0.76284325
-0.0439579 0.10706262 0.79258597
-0.035951305 0.10214663 0.79610801
-0.08265537 0.11951941 0.79996079
-0.051563252 0.11364833 0.76908344
-0.056904878 0.10200591 0.78316522
-0.056595448 0.11571084 0.79568702
-0.046124998 0.11238874 0.79539776
-0.08208324 0.12328471 0.79566276
-0.072271809 0.12733731 0.7785728
-0.064781979 0.12299056 0.79425377
-0.057363592 0.12159045 0.7938531
-0.033795811 -0.083242431 0.80419791
-0.028814867 -0.082247257 0.80623353
-0.01268673 -0.084493823 0.76343125
-0.035072945 -0.074543752 0.80571359
-0.026565831 -0.076337084 0.80400521
-0.045190901 -0.063435443 0.80221897
-0.033652194 -0.064774312 0.80484945
-0.02506597 -0.066065833 0.80453253
-0.017363753 -0.064013965 0.80438626
-0.043928836 -0.058505964 0.80618113
-0.034990482 -0.054638665 0.80387211
0.007344706 -0.037528105 0.76067567
-0.015464206 -0.05271031 0.80344391
-0.0097856522 -0.05121243 0.80031562
-0.03539598 -0.044471294 0.80455488
-0.016014896 -0.04267472 0.79052752
-0.014698641 -0.046912968 0.80515957
-0.033447202 -0.034069266 0.80425
-0.023550538 -0.035970017 0.80495262
-0.013575488 -0.035912964 0.80474406
-0.0083806217 -0.034234673 0.80575627
-0.031017169 -0.026344115 0.80379701
-0.024304748 -0.026083997 0.80597287
-0.014853409 -0.025390826 0.80566847
-0.0078076362 -0.02351987 0.80593282
-0.030773282 -0.011734068 0.80478764
-0.023286743 -0.015320669 0.80456454
-0.0065029934 -0.02565001 0.78382534
-0.0015314445 -0.018952817 0.79286844
-0.031799331 -0.0044160238 0.80647993
-0.024515679 -0.0049803602 0.80442584
0.024377884 -0.016280688 0.74512184
-0.0062997863 -0.0037214034 0.80490774
-0.024924926 0.006837632 0.80485034
-0.0034655503 0.0022541757 0.78576022
-0.006169945 0.0035518978 0.80364835
-0.031573255 0.016257474 0.80304813
-0.024509305 0.01506106 0.80539262
-0.015845919 0.029371461 0.78584671
-0.0070166877 0.021111241 0.79357499
-0.032801934 0.026945302 0.80652034
-0.02376987 0.024875039 0.8046695
0.005717013 0.016930858 0.7721594
-0.006759665 0.024580853 0.80359524
-0.032164726 0.034211982 0.80494118
-0.015871568 0.037352353 0.79030013
-0.016358931 0.035177551 0.80543745
-0.0075384616 0.032426108 0.80462468
-0.033781063 0.046436664 0.80405414
-0.023639726 0.044973526 0.805206
-0.013760188 0.043699101 0.80446279
0.0080928011 0.046871629 0.77387798
-0.042918742 0.059731245 0.8062278
-0.033845212 0.055794008 0.8031466
-0.016812101 0.047318272 0.79098219
-0.015218228 0.054691926 0.80423808
-0.0424628 0.066931576 0.80508488
-0.021940019 0.028748777 0.75901812
-0.025889078 0.064417712 0.80309832
-0.016657574 0.063769214 0.80512714
-0.051131204 0.077002339 0.80644178
-0.043472961 0.07413131 0.80464387
-0.035560083 0.074891873 0.80392867
-0.024641564 0.072860464 0.80603188
-0.018647604 0.073874503 0.80309927
-0.061460465 0.085301489 0.80706835
-0.054920983 0.084566951 0.80580807
-0.035312332 0.10525125 0.75390768
-0.03578287 0.085128993 0.80562037
-0.025390906 0.082079306 0.80632544
-0.07233157 0.097465672 0.80666971
-0.06330613 0.096441239 0.80484444
-0.055196356 0.095969819 0.80566084
-0.045276027 0.094776638 0.80457878
-0.036135424 0.095870204 0.80577314
-0.027440876 0.091639318 0.80173212
-0.082657717 0.10554948 0.80656397
-0.074637152 0.10416988 0.80617887
-0.064352855 0.10534002 0.80623788
-0.046319582 0.11919847 0.76220554
-0.024837185 0.083434246 0.77420908
-0.037872657 0.10167865 0.80542141
-0.083910748 0.11750884 0.80660993
-0.069779716 0.12174057 0.78790087
-0.048508238 0.10703988 0.78407335
-0.054748893 0.11407892 0.80522269
-0.049449265 0.11189823 0.80389994
-0.082724422 0.12178054 0.80608511
-0.074765541 0.12246782 0.8037985
-0.066770136 0.1240605 0.80089748
-0.04614263 -0.089055121 0.81245971
-0.036801647 -0.081759654 0.81242257
-0.013921299 -0.049078438 0.76890743
-0.034455281 -0.073210001 0.81558865
-0.016011816 -0.058394697 0.79053819
-0.050024532 -0.063997 0.81594157
-0.041856371 -0.06605424 0.81504184
-0.030623516 -0.071170524 0.79643542
-0.020388288 -0.065512672 0.80460131
-0.043255828 -0.054037057 0.81358868
-0.034804355 -0.055226814 0.81502789
-0.024775216 -0.053560022 0.81381065
-0.017715711 -0.055621345 0.81422585
-0.042903043 -0.047702584 0.81521249
-0.034320619 -0.043528508 0.81529444
-0.010443571 -0.023487011 0.77276301
-0.014849356 -0.030842418 0.80063713
-0.035649229 -0.034641419 0.81428939
-0.025905687 -0.035633285 0.81553793
-0.014807486 -0.033935726 0.81564325
0.012674196 -0.0020519681 0.76677907
-0.033097927 -0.025684668 0.81532758
-0.018638734 -0.0097356681 0.79317492
-0.014635515 -0.023643572 0.81487083
-0.0083286166 -0.024112646 0.813667
-0.032575063 -0.016604245 0.81432772
-0.019111043 -0.030535763 0.7874108
-0.012816902 -0.015694581 0.81467301
-0.0069065019 -0.016351432 0.81702399
-0.034578711 0.026044564 0.76657933
-0.025762485 -0.0043817577 0.81428707
0.0068582534 0.0075205937 0.7807011
-0.0072107017 -0.0038285181 0.8147071
-0.032241713 0.0031791597 0.81469899
-0.026186446 0.0062475055 0.8131994
-0.015517748 0.0051999632 0.81361336
-0.0071129887 0.0067091822 0.81307822
-0.03261321 0.016437512 0.81596434
-0.024862563 0.013627935 0.81521034
-0.01504023 0.014092817 0.81538045
-0.0084982812 0.014681458 0.81447703
0.055180501 0.048533648 0.69994527
-0.026015868 0.024632456 0.81427979
-0.014267293 0.025870234 0.81565171
-0.0070626289 0.026005886 0.81431979
-0.033696476 0.034364391 0.8157891
-0.025214961 0.035432264 0.81597418
-0.013460264 0.036103003 0.8137809
-0.041018128 0.046909273 0.81573123
-0.021328606 0.040037766 0.7968263
-0.025639487 0.046110068 0.81438029
-0.015224115 0.046229776 0.8164416
-0.0093790293 0.041622296 0.81433785
-0.042253472 0.05605039 0.81407607
-0.025776058 0.037815634 0.78634882
-0.026688145 0.055025499 0.81562179
-0.015699178 0.054355461 0.81384146
-0.051175602 0.067879662 0.81555355
-0.027755277 0.04797858 0.7890631
-0.034484413 0.065708108 0.81494606
-0.024469534 0.065978512 0.81504971
-0.017870307 0.062969863 0.8129884
-0.060046859 0.07731849 0.81610143
-0.039362658 0.034284025 0.76354539
-0.044691425 0.073997885 0.81500161
-0.035709783 0.073844627 0.81459087
-0.025482709 0.075509764 0.81442267
-0.039805874 0.10284316 0.77131528
-0.054181933 0.085120276 0.81484604
-0.042437136 0.078782871 0.80869508
0.0007565369 0.072749905 0.74244446
-0.028496124 0.083341345 0.81607705
-0.044366971 0.10167703 0.77553391
-0.064504482 0.095045045 0.81436974
-0.054138038 0.095867567 0.81574827
-0.028378755 0.091790639 0.7907967
-0.038006227 0.095322825 0.81495804
0.016732242 0.13580889 0.6086846
-0.075271383 0.10629308 0.81675714
-0.04825677 0.10759351 0.77850527
-0.039435737 0.091776207 0.79326165
-0.046159148 0.10344094 0.81520307
-0.032099545 0.18416679 0.58104008
-0.076358952 0.1143555 0.81432223
-0.05071057 0.10144911 0.77819818
-0.056609642 0.11253475 0.81314123
-0.048985105 0.1658507 0.66578943
-0.07524389 0.12071793 0.81320447
-0.067141652 0.12197678 0.81091046
-0.046805196 -0.08290261 0.8254261
-0.038930103 -0.081002176 0.82403028
-0.045193374 -0.073494025 0.8259353
-0.020403516 -0.059566181 0.80248189
-0.028919265 -0.072445497 0.82395601
-0.026657237 -0.056731939 0.80373663
-0.022469619 -0.068441212 0.79875892
-0.013547122 -0.06543947 0.80478334
-0.045764614 -0.052547902 0.82538056
-0.035672739 -0.053178333 0.82528609
-0.024684148 -0.054274928 0.82389528
-0.01900202 -0.052765444 0.82390618
-0.043075949 -0.04423517 0.82516718
-0.034046758 -0.030782627 0.80596113
-0.023971099 -0.044476863 0.82696533
-0.014952552 -0.019529484 0.79718012
-0.040978424 -0.035434287 0.82614642
-0.035480622 -0.034750294 0.82541144
-0.0068627452 -0.031129867 0.79794341
-0.015563291 -0.035663202 0.82416308
-0.035226822 -0.025375225 0.82545543
-0.015529141 -0.021585384 0.7839148
-0.0095757414 -0.015093791 0.80984312
-0.008900702 -0.020983845 0.82942224
-0.033422187 -0.015577124 0.82565862
-0.017225109 -0.023103716 0.80622315
-0.013286417 -0.014991182 0.82558239
-0.0093252957 -0.014622539 0.82507694
-0.032810148 0.011120689 0.80011904
-0.024192085 -0.0058189216 0.82433015
-0.015317807 -0.0078293029 0.82486135
0.017080599 -0.018876536 0.77843672
-0.032399591 0.0059829946 0.82472134
-0.012460114 0.011003325 0.80458546
-0.014805757 0.0069375392 0.82457143
-0.008454442 0.0045448989 0.82406706
-0.012712711 0.023395574 0.79360521
-0.023845626 0.025856219 0.80800164
-0.014314115 0.015335339 0.82623023
-0.011713409 0.042635795 0.78996086
-0.033040717 0.024340354 0.82519716
-0.023929888 0.024641091 0.82464564
-0.014450762 0.023244699 0.82489228
-0.009291172 0.022240222 0.82571971
-0.04101257 0.034971282 0.82611108
-0.009062482 0.027948389 0.78922051
-0.017618988 0.037428536 0.81024516
-0.014646288 0.034873202 0.82614493
-0.042220484 0.045164116 0.82509732
-0.017759454 0.020031512 0.77763367
-0.026015691 0.044202898 0.82379407
-0.015364348 0.042319834 0.82490778
-0.028127208 0.039803654 0.79981136
-0.035267059 0.056186359 0.82615077
-0.010098059 0.044208959 0.80313838
-0.0046802065 0.055283841 0.80229408
-0.051541388 0.066482536 0.82518035
-0.045344517 0.065366589 0.82556754
-0.033885356 0.045905676 0.80548191
-0.024157442 0.065004155 0.82479441
-0.062804975 0.077243157 0.82760733
-0.048783422 0.057991378 0.80383861
-0.030058084 0.064813823 0.79168636
-0.03556351 0.073580213 0.82570791
-0.026190568 0.072665557 0.82561421
-0.070692018 0.089033097 0.82778877
-0.049525719 0.094695814 0.80011219
-0.054820366 0.085259862 0.82393777
-0.035222858 0.071941748 0.81378472
-0.035091899 0.084952071 0.82525814
-0.080368817 0.097011447 0.82527745
-0.033767771 0.10049992 0.77316856
-0.060215101 0.082808055 0.81670696
-0.037026454 0.10393375 0.77740908
-0.045753922 0.095989898 0.82490629
-0.039321464 0.091334194 0.82204014
-0.085132964 0.10642815 0.82688838
-0.060579371 0.088328667 0.80630422
-0.04295738 0.093565032 0.79719216
-0.05584015 0.10537957 0.82452017
-0.047544688 0.10177173 0.82395327
-0.082416505 0.11307407 0.82272488
-0.073298596 0.10329261 0.82313859
-0.065761633 0.113049 0.82484192
-0.076756448 0.12116621 0.82062978
-0.046637069 -0.074465975 0.83527327
-0.0055465898 -0.03415224 0.77557462
-0.051044464 -0.069896251 0.83871138
-0.043631036 -0.06413123 0.83787507
-0.025899231 -0.071030401 0.81301069
-0.027421113 -0.064933985 0.83416712
-0.05281508 -0.055500001 0.83849454
0.017752923 -0.032116264 0.75076109
-0.034402318 -0.054410923 0.83542669
-0.018525291 -0.057345208 0.81944668
-0.044081252 -0.044723962 0.83625644
-0.034409866 -0.045021288 0.83387792
-0.024632923 -0.045681454 0.83471692
-0.020431265 -0.013707951 0.80483246
-0.042955428 -0.0368274 0.83577681
-0.033850089 -0.018531412 0.81072021
-0.025223948 -0.036510672 0.83569008
-0.016912324 -0.0341952 0.83321881
-0.041396618 -0.025885336 0.83603495
-0.030564332 -0.034299016 0.81660444
-0.0045785522 -0.028992323 0.80065888
-0.0087824399 -0.011288201 0.81362319
-0.031754579 0.0084099714 0.79995561
-0.017233171 -0.00076840719 0.8084864
-0.014335142 -0.015784202 0.83483922
-0.0097679198 -0.010555461 0.83394015
-0.034519911 -0.0048625814 0.83624721
-0.024739472 -0.0047027352 0.83484048
-0.0084439479 -0.0094180051 0.82242829
-0.0087024271 -0.00057306886 0.83313298
-0.033318996 0.0061455541 0.83629459
-0.0065969741 0.028025365 0.78588277
-0.014694319 0.0059775803 0.83490872
-0.0082805753 0.0042545199 0.83609039
-0.017109655 0.019256724 0.80885464
-0.02452855 0.015740054 0.8338185
-0.014086902 0.013010771 0.83442158
-0.0093550384 0.016832143 0.83288169
-0.040302843 0.0285348 0.83884323
-0.034993958 0.025168415 0.8355701
-0.01108139 0.027323207 0.81357926
-0.016789544 0.033283405 0.82176477
-0.0095314384 0.020845085 0.83661842
0.096777886 0.0073492127 0.65387499
-0.035299573 0.035952747 0.8345688
-0.013097381 0.023271069 0.80520874
-0.016289119 0.035560202 0.8367961
-0.04266974 0.043887354 0.83631134
-0.027399465 0.040655587 0.82358348
-0.025571933 0.046771228 0.8337369
-0.017112255 0.043671239 0.83269954
-0.051005639 0.056104079 0.83504367
-0.03067323 0.043005928 0.81343377
-0.029809035 0.057422098 0.82434374
-0.025225919 0.051650323 0.83663148
-0.018510411 0.052883763 0.83360308
-0.038576663 0.028030626 0.79139483
-0.032970186 0.038665306 0.7929545
-0.030527204 0.040681485 0.80984396
-0.018586028 0.065490745 0.82194901
-0.042511579 0.084052145 0.7438131
-0.054928321 0.074078843 0.83699185
-0.034421887 0.082660519 0.81598377
-0.033686724 0.076464601 0.83448189
-0.02937505 0.11093442 0.72664785
-0.016753281 0.098282024 0.76310486
-0.064688727 0.084340535 0.83513695
-0.033699576 0.06427443 0.78714544
-0.043398123 0.097536214 0.79404134
-0.036931008 0.082607545 0.83583117
-0.073686793 0.094426729 0.83452666
-0.046623271 0.095019206 0.79484266
-0.042322554 0.091508389 0.81660295
-0.046284042 0.093503632 0.8361721
-0.080758423 0.1070262 0.8360669
-0.058403231 0.081494398 0.80535072
-0.065519162 0.10490706 0.83453906
-0.056956794 0.10339095 0.83485669
-0.071326703 0.11399154 0.83580661
-0.066560969 0.11241721 0.83447027
-0.045093454 -0.072610036 0.84543478
-0.034811784 -0.07248041 0.84413803
-0.04562391 -0.064835556 0.84411722
-0.035477273 -0.064320177 0.84587675
-0.024204612 -0.060037673 0.84150016
-0.052152097 -0.051986206 0.84485066
-0.043098446 -0.054172922 0.84603631
-0.033856831 -0.053677466 0.84570205
-0.026109999 -0.053318821 0.84401596
-0.050310478 -0.047624171 0.84725285
-0.046025362 -0.04578726 0.84695876
-0.036193363 -0.044499647 0.84510392
-0.025375133 -0.045047842 0.84659767
-0.04299346 -0.036267921 0.84417468
-0.034401961 -0.035807852 0.8455044
-0.023426265 -0.036252104 0.84544134
-0.018481389 -0.035725374 0.84663242
-0.042452358 -0.026318491 0.84820729
-0.034297515 -0.026198775 0.84535843
-0.025145946 -0.02422181 0.84515917
-0.015797338 -0.025030613 0.8438127
-0.040814996 -0.011289418 0.8439725
-0.034173541 -0.015506377 0.84602284
-0.0050316667 -0.017286366 0.81335402
-0.015502556 -0.015671007 0.84411907
-0.035070065 -0.0053510997 0.84576321
-0.025707958 -0.0044137966 0.84531951
-0.015774848 -0.005402809 0.84555376
-0.040337801 0.0013321936 0.8462677
-0.035246111 0.0053160363 0.84525859
-0.025491791 0.0051095462 0.84498709
-0.014849567 0.0059277886 0.84491014
-0.0093499422 0.0064189434 0.84617215
-0.041247021 0.017629663 0.84641343
-0.033369225 0.014997648 0.84603143
-0.02652465 0.014663287 0.84596199
-0.015568137 0.013447533 0.84532624
-0.035582479 0.025446367 0.84660918
-0.011417042 0.01389664 0.81733656
-0.016334932 0.026340207 0.84573913
-0.042755693 0.034778938 0.84564853
-0.019329697 0.026115432 0.822501
-0.025421083 0.036475606 0.84488237
-0.016678434 0.034550052 0.84441996
-0.043240923 0.04567356 0.84641439
-0.033135749 0.045546666 0.84558719
-0.023767155 0.046973925 0.84473407
-0.018573154 0.045364186 0.84553403
-0.052852619 0.057058275 0.84082913
-0.046491578 0.055782896 0.84551644
-0.035972372 0.052794721 0.84378451
-0.025715573 0.056266807 0.84502774
-0.019824296 0.051016305 0.84911561
-0.054506611 0.065913193 0.84494203
-0.044176117 0.065202266 0.84518105
-0.035467342 0.063421361 0.84051359
-0.026458437 0.063253835 0.84492332
-0.065000512 0.076926626 0.84725654
-0.054590903 0.074467376 0.84368885
-0.041020121 0.069772057 0.83478218
-0.03586942 0.075275458 0.84483993
-0.029069461 0.071240842 0.84495896
-0.07383173 0.087063462 0.84451884
-0.065455645 0.085521907 0.8455984
-0.055600882 0.085124671 0.84506637
-0.039731149 0.084132664 0.83597678
-0.038062993 0.082636386 0.84529167
-0.072851866 0.097223476 0.84459728
-0.059290584 0.090240188 0.83406842
-0.05614182 0.095008433 0.84498864
-0.047196627 0.093583263 0.84083772
-0.081611708 0.10409717 0.84363395
-0.074937247 0.10494671 0.84481084
-0.06542924 0.10341642 0.84500766
-0.041526876 0.1312387 0.73401719
-0.077928677 0.11173239 0.84197623
-0.066271484 0.11074856 0.84126228
-0.047852434 -0.073178411 0.85164338
-0.050644934 -0.06512323 0.8540107
-0.04497955 -0.06345886 0.85489362
-0.026353849 -0.056743413 0.83909637
-0.026607014 -0.070851475 0.81100535
-0.036073435 -0.05415988 0.85498679
-0.0059299148 -0.057428885 0.80020088
-0.052117061 -0.047959585 0.85486668
-0.043840416 -0.044627972 0.85391706
-0.011764089 -0.040020283 0.82006156
-0.024759201 -0.045264114 0.85532093
-0.017597914 -0.040427119 0.8535012
-0.044824835 -0.03730797 0.85459083
-0.02894567 -0.031170912 0.80934227
-0.026249932 -0.019528408 0.83668494
-0.01771719 -0.032387488 0.85183221
-0.041197062 -0.025536681 0.85233408
-0.024790127 -0.0327911 0.83784634
-0.024194993 -0.023986656 0.85414374
0.010412253 0.0013323948 0.79810339
-0.041098934 -0.01535406 0.85489368
-0.0089465147 -0.0021943715 0.79161328
-0.01345129 0.0080616716 0.81523001
-0.016159983 -0.014739471 0.8545211
-0.035410371 -0.0037659975 0.85448205
-0.006811541 -0.010927452 0.82470816
-0.010120319 -0.0086321291 0.83869094
-0.035649966 0.0050179926 0.85420471
-0.023999404 0.018201338 0.83191025
-0.017392114 0.0056317858 0.85359591
-0.040267825 0.017758667 0.85988152
-0.017869761 0.021311942 0.82672751
-0.00035542587 0.0045954133 0.81010324
-0.015114827 0.013957147 0.85506201
-0.041981515 0.026597643 0.85258824
-0.034070689 0.025446767 0.85521001
-0.011392728 0.024899885 0.82923239
-0.019815046 0.038332023 0.82857829
0.012729267 0.025206055 0.7772004
-0.034681108 0.035596322 0.85441869
-0.026442129 0.033250425 0.85383373
-0.017968679 0.036169667 0.85389459
-0.050274283 0.046257228 0.85200107
-0.042730551 0.044402067 0.8533287
-0.018549759 0.03714484 0.8266595
-0.023459259 0.045273181 0.85604346
-0.053483766 0.056531634 0.85371691
-0.03078852 0.042277347 0.83047533
-0.032044124 0.037561096 0.83606678
-0.025443105 0.054802898 0.85493362
-0.062813982 0.0666852 0.85508996
-0.045965713 0.04447484 0.8271634
-0.033009727 0.050876617 0.83088911
-0.035152085 0.065540321 0.85360438
-0.027656153 0.061264858 0.85235304
-0.063557275 0.084755838 0.83065331
-0.046448138 0.057296425 0.82501823
-0.029067535 0.081022143 0.82145405
-0.036012195 0.07465525 0.85480702
-0.081078991 0.085808009 0.8542186
-0.05898517 0.090383969 0.82938105
-0.047177404 0.087399051 0.83040714
-0.037241962 0.082032852 0.83120471
-0.043576561 0.083739907 0.85136479
-0.038507342 0.082396954 0.85113508
-0.08070191 0.093355894 0.85582203
-0.075362839 0.097632028 0.85613984
-0.051521353 0.075199328 0.82307369
-0.039262582 0.089581348 0.83447468
-0.049204469 0.091454923 0.85069108
-0.062310606 0.079117052 0.82606596
-0.065720245 0.10410206 0.85383666
-0.056778699 0.10031912 0.85511959
-0.050738677 -0.062721699 0.86353272
-0.028046539 -0.08474946 0.8098194
-0.010239332 -0.065773249 0.80537885
-0.054725468 -0.055653453 0.86064619
-0.043171052 -0.054360345 0.8653214
-0.034844123 -0.055504844 0.86479545
-0.011898339 -0.059218433 0.8243894
-0.051428601 -0.046388693 0.86245906
-0.044543583 -0.044585411 0.86496651
-0.019192215 -0.043049313 0.83801419
-0.02596019 -0.043859519 0.86526376
-0.018891528 -0.040588796 0.86649984
-0.045526128 -0.035294872 0.8653155
-0.020778812 -0.02155612 0.80890179
-0.028054405 -0.019497331 0.84732312
-0.018854758 -0.032189965 0.86199087
-0.037987482 -0.0072457297 0.83436084
-0.032466967 -0.02820285 0.85169405
-0.025533872 -0.024159105 0.86450297
0.0021655753 -0.0051790802 0.82012349
-0.041865788 -0.015675634 0.86366355
-0.035738181 -0.01578036 0.86457384
-0.0089411382 0.0099343657 0.81800008
-0.015905283 -0.015407247 0.86652541
-0.040964708 -0.0030793101 0.86312401
-0.034187268 -0.0053215022 0.86333364
-0.025494451 -0.0049196319 0.86420101
-0.010856904 -0.0081180613 0.85172033
